# .PCD v0.7 - Point Cloud Data file format
VERSION 0.7
FIELDS x y z rgb
SIZE 4 4 4 4
TYPE F F F F
COUNT 1 1 1 1
WIDTH 1015
HEIGHT 1
VIEWPOINT 0 0 0 1 0 0 0
POINTS 1015
DATA ascii
-0.59548795 -1.5859786 0.83163279 8.5745523e-39
0.19127499 -1.5830913 0.83556038 9.2194229e-41
0.22879523 -1.5834454 0.83188546 0
0.36795157 -1.5874519 0.83437204 1.9350685e-39
0.3714819 -1.5826122 0.83405608 2.3042083e-39
0.4587501 -1.5843618 0.83490539 3.8719152e-39
-0.7936635 -1.5771359 0.83222419 1.0141878e-38
-0.7858547 -1.5740945 0.83246994 1.0694692e-38
-0.77496582 -1.5747235 0.83289063 1.3091777e-38
-0.76413488 -1.5747267 0.8328889 1.281519e-38
-0.75485116 -1.5747294 0.83288747 1.281519e-38
-0.74556756 -1.5747323 0.83288604 1.3091775e-38
-0.73543358 -1.5742499 0.8328864 1.299958e-38
-0.72474909 -1.5752105 0.83288795 1.2815548e-38
-0.71461415 -1.5747262 0.83288926 1.1248224e-38
-0.70532793 -1.5747238 0.83289045 1.0510299e-38
-0.6952042 -1.574242 0.83289045 1.05103e-38
-0.6845029 -1.5752088 0.83288878 1.1340418e-38
-0.67438036 -1.5747296 0.83288741 1.2815548e-38
-0.66509664 -1.5747328 0.83288592 1.299958e-38
-0.65498322 -1.5742522 0.83288521 1.3091775e-38
-0.64498091 -1.5747313 0.83288664 1.2815548e-38
-0.63497096 -1.5752103 0.83288795 1.281519e-38
-0.6248582 -1.574726 0.83288932 1.3183971e-38
-0.61479002 -1.5743301 0.83284485 1.2077986e-38
-0.60609561 -1.5766586 0.8322385 9.404313e-39
0.19321905 -1.5720167 0.83949131 5.5244931e-40
0.2280976 -1.5760429 0.83046305 6.4464354e-40
0.37662071 -1.5770049 0.83461308 1.474812e-39
0.38333407 -1.5714234 0.83458972 1.8432316e-39
0.44585037 -1.5717111 0.83530951 1.4748302e-39
0.45250726 -1.5772625 0.83505923 2.2127554e-39
-0.78180951 -1.5678812 0.83121246 4.8867285e-39
-0.77315784 -1.5642552 0.83223021 8.7593037e-39
-0.76470596 -1.5646557 0.83288866 1.3091778e-38
-0.7554701 -1.5646585 0.83288723 1.3091777e-38
-0.74469447 -1.5646608 0.83288598 1.2907746e-38
-0.73391658 -1.5646588 0.83288699 1.2815548e-38
-0.72467822 -1.5646564 0.83288831 1.2907384e-38
-0.71543986 -1.5646542 0.83288938 1.2999221e-38
-0.70466185 -1.5646515 0.83289081 1.2815188e-38
-0.69388533 -1.564652 0.83289051 1.2815188e-38
-0.68464923 -1.5646547 0.83288926 1.2999221e-38
-0.67541331 -1.5646572 0.83288789 1.2907384e-38
-0.66463774 -1.5646602 0.83288634 1.281555e-38
-0.65386194 -1.5646625 0.83288509 1.2999581e-38
-0.6446237 -1.5646602 0.83288622 1.3091777e-38
-0.63439143 -1.5637704 0.83248252 1.134042e-38
-0.62567133 -1.5646926 0.83217591 8.9433362e-39
-0.61697292 -1.5684657 0.83090878 6.6384455e-39
0.19266663 -1.5648955 0.83796299 5.5244931e-40
0.38814008 -1.5685732 0.83519268 1.1982265e-39
0.39450866 -1.5655987 0.8351717 7.3760988e-40
0.40484002 -1.5626584 0.83392453 4.7934721e-39
0.41443247 -1.5618511 0.83468997 8.4812735e-39
0.42489219 -1.5628968 0.83380091 3.7796873e-39
0.43571019 -1.5661576 0.83600891 1.0134863e-39
0.44156295 -1.5690577 0.83407533 1.2897173e-39
-0.76403034 -1.5589254 0.832407 8.6671081e-39
-0.75522596 -1.5560026 0.832205 8.7593037e-39
-0.74461305 -1.5545523 0.83253372 1.1893595e-38
-0.73463827 -1.5547012 0.83288723 1.2907746e-38
-0.72544718 -1.5546991 0.83288842 1.2815909e-38
-0.71542102 -1.5542244 0.83288968 1.2907744e-38
-0.70483655 -1.5551659 0.83289105 1.2999581e-38
-0.69481176 -1.5546942 0.83289105 1.299994e-38
-0.68562299 -1.5546967 0.83288974 1.2907744e-38
-0.67560905 -1.5542276 0.83288819 1.281555e-38
-0.66500777 -1.5551745 0.83288664 1.2907746e-38
-0.65506637 -1.5540658 0.83247966 1.1709564e-38
-0.64559466 -1.5556085 0.83216423 8.7589436e-39
-0.63654715 -1.5587918 0.83247668 8.2057712e-39
0.19293392 -1.5555429 0.83647341 1.8402972e-40
-0.7408585 -1.5496646 0.8303439 4.8867285e-39
-0.73421335 -1.548613 0.83089763 4.8867285e-39
-0.724262 -1.5470377 0.83172703 4.794893e-39
-0.71433145 -1.5454661 0.83255464 4.7030575e-39
-0.70412683 -1.5444942 0.83220541 1.0235516e-38
-0.69649321 -1.5444645 0.83222115 1.0235516e-38
-0.68538058 -1.5455005 0.83253658 6.7317201e-39
-0.67544222 -1.5470735 0.83170825 5.0714799e-39
-0.66548216 -1.5486505 0.8308779 5.255511e-39
-0.65835637 -1.5497787 0.83028388 5.3480668e-39
0.19396447 -1.5450217 0.83794951 5.5244931e-40
-0.067253686 -1.5325173 0.83595079 1.1779175e-40
0.099146754 -1.5324265 0.83599931 8.6689368e-40
0.19423729 -1.5359694 0.83641273 1.8402972e-40
0.0956688 -1.5204916 0.835509 8.6617341e-40
0.19516325 -1.5242096 0.83694482 2.7622395e-40
0.22546749 -1.5241327 0.83356905 0
-0.061631132 -1.5138571 0.83429796 1.1779175e-40
0.09236183 -1.5128115 0.83621311 8.6545314e-40
0.19654667 -1.5175344 0.8370865 2.7633213e-39
0.2246369 -1.5159571 0.83282942 0
-0.055798374 -1.5031116 0.83397281 1.1779175e-40
0.08756911 -1.5039314 0.83590156 8.6437134e-40
0.19756161 -1.5051142 0.83763617 1.8420951e-39
0.22347766 -1.5047088 0.83209383 0
-0.051463753 -1.4965942 0.83648616 1.1779175e-40
-0.047615837 -1.4916215 0.83412409 1.1779175e-40
0.079792775 -1.4929924 0.83506584 8.6364967e-40
0.082898319 -1.4970719 0.83453625 8.6364967e-40
0.19832173 -1.4942479 0.8377589 4.6061381e-40
0.22259407 -1.496191 0.83163536 7.3683777e-40
-0.042975858 -1.4865495 0.835208 1.1779175e-40
-0.038386814 -1.482093 0.83596343 1.1779175e-40
0.067650177 -1.4818377 0.83610326 9.5332156e-40
0.073707923 -1.4868852 0.83446401 8.618462e-40
0.1977102 -1.4864068 0.83528823 2.7622395e-40
0.20036355 -1.4854107 0.83919299 4.2369983e-39
-0.033890683 -1.4786712 0.83448321 1.1779175e-40
-0.024926035 -1.4733076 0.83492303 1.1779175e-40
0.049815807 -1.4706713 0.83554035 9.1331365e-39
0.055736575 -1.4738122 0.83492386 3.6179817e-39
0.063180678 -1.4785956 0.83452487 9.5223976e-40
0.19947094 -1.4754145 0.8379519 2.3949032e-39
0.21947436 -1.4708941 0.83876151 1.2526605e-38
0.22026984 -1.478026 0.83819216 1.2434769e-38
-0.014561555 -1.468228 0.83466232 1.1779175e-40
-0.0057432149 -1.4655153 0.83505177 1.1779175e-40
0.0045000589 -1.4637126 0.83605146 1.1779175e-40
0.014711024 -1.4632963 0.83628231 1.7726271e-39
0.024918362 -1.4641398 0.83581442 7.1051928e-39
0.035144228 -1.4657655 0.83491284 7.5668926e-39
0.043936111 -1.4681679 0.83469558 8.9483851e-39
0.19861512 -1.4657416 0.83659935 6.4464354e-40
0.2014232 -1.4662638 0.83964515 5.7106738e-39
0.21862996 -1.4634218 0.83954567 1.2526605e-38
0.19783936 -1.4567363 0.83493882 0
0.20037681 -1.4552231 0.83910543 4.421028e-39
0.22059146 -1.4539019 0.83817881 1.2526605e-38
0.27314618 -1.4343996 0.83589476 3.5974386e-39
0.26673487 -1.4258494 0.83417356 3.5052416e-39
0.25563675 -1.4140656 0.83501881 2.7676752e-39
0.26247898 -1.419934 0.83755124 1.8449958e-39
0.14180839 -1.4015869 0.83504701 0
0.16833885 -1.4006267 0.83885789 3.6899944e-39
0.17586112 -1.4006286 0.83600944 1.3836575e-39
0.18299238 -1.4006859 0.83665425 1.3836575e-39
0.23483616 -1.4015764 0.83505082 4.6169842e-40
0.24441531 -1.4060608 0.83506095 1.4758531e-39
0.25027287 -1.4095776 0.83040613 1.1992663e-39
0.14650756 -1.3960629 0.83467865 5.5353391e-40
0.15549594 -1.3961171 0.83497304 8.301222e-40
0.16463307 -1.3988124 0.83547348 1.3836575e-39
0.17278491 -1.3999425 0.83274382 0
0.18764591 -1.399464 0.83519286 0
0.1950545 -1.399128 0.83647287 0
0.20490313 -1.399128 0.83647281 0
0.21475174 -1.399128 0.83647281 0
0.22461659 -1.3992337 0.83641142 3.6013371e-43
-0.73309398 -1.7605342 0.84529662 3.8722151e-39
-0.72633648 -1.760533 0.8452971 4.3328331e-39
-0.71620041 -1.7605318 0.84529775 4.60942e-39
-0.70576882 -1.7646328 0.84529662 4.4250287e-39
-0.69561392 -1.7646332 0.84529656 4.4253874e-39
-0.68579412 -1.760532 0.84529757 4.6097801e-39
-0.67565924 -1.7605335 0.84529686 4.4250287e-39
-0.66890287 -1.760535 0.84529626 4.0566063e-39
-0.74199444 -1.7523983 0.84529698 4.1484418e-39
-0.73358041 -1.7523984 0.84529686 4.7016142e-39
-0.7227025 -1.7521331 0.8444953 4.7934483e-39
-0.71417481 -1.7534164 0.842987 1.382933e-39
-0.70471621 -1.754939 0.84229249 1.1985418e-39
-0.69455749 -1.7548357 0.84233934 1.1981831e-39
-0.68444014 -1.7530453 0.84278709 1.1989019e-39
-0.67636442 -1.7523969 0.84529763 5.9919901e-39
-0.66626865 -1.7523998 0.84529638 4.7016142e-39
-0.65785468 -1.7523999 0.84529626 4.1484418e-39
-0.75082558 -1.7443204 0.84529901 4.240636e-39
-0.74412084 -1.7443224 0.84529811 4.7938098e-39
-0.73429912 -1.7440534 0.84358186 2.8580617e-39
-0.72669119 -1.7481178 0.84264117 1.3829344e-39
-0.67325401 -1.7481275 0.84232897 1.0141519e-39
-0.66444957 -1.7439873 0.84398013 2.7658675e-39
-0.65359491 -1.7443234 0.84529763 4.60942e-39
-0.64688855 -1.7443217 0.84529847 3.8718549e-39
-0.75458026 -1.7363052 0.8453005 4.3328317e-39
-0.74428552 -1.7349056 0.84411138 2.8584219e-39
-0.73924053 -1.738523 0.84244424 1.4754888e-39
-0.65535617 -1.7362638 0.84440196 4.0566063e-39
-0.64435673 -1.7363071 0.84529954 4.1484418e-39
-0.76298922 -1.7230929 0.84530002 4.1484418e-39
-0.75448924 -1.7241123 0.84465396 4.2409976e-39
-0.74823797 -1.726974 0.84319514 2.3052509e-39
-0.65179753 -1.727483 0.84387416 3.5034325e-39
-0.64483404 -1.7252003 0.84529865 4.79417e-39
-0.63670647 -1.7225626 0.84524107 4.0562462e-39
0.18977806 -1.7241368 0.84359592 4.144804e-39
0.19770667 -1.7221496 0.84816408 7.9211871e-39
0.21903938 -1.7203068 0.8490147 1.2250381e-38
0.22606574 -1.7227949 0.84604162 1.2434411e-38
-0.76403117 -1.7126338 0.84529799 4.2406374e-39
-0.75477487 -1.7144301 0.84373283 2.8584233e-39
-0.64183509 -1.7126389 0.84529555 4.6097801e-39
-0.63375741 -1.7148029 0.84337574 3.9640505e-39
0.18921402 -1.7161283 0.84184885 2.3027089e-39
0.19492669 -1.715511 0.84614313 6.8159297e-39
0.20464189 -1.7149187 0.84932691 9.8554764e-39
0.21453314 -1.7147543 0.84940261 1.1697572e-38
0.22535744 -1.7154157 0.84582269 1.2526605e-38
-0.766038 -1.7048615 0.84529686 4.1484418e-39
-0.75593621 -1.7044902 0.8430534 2.5818378e-39
-0.6426512 -1.7048644 0.84529549 4.5179446e-39
-0.63442516 -1.7048639 0.84529573 4.1488019e-39
0.1948107 -1.705526 0.84498674 5.8947035e-39
0.20359054 -1.7042094 0.84832013 9.7632822e-39
0.21435398 -1.7052985 0.84871578 1.1789766e-38
0.22435641 -1.7048473 0.84530497 1.2342575e-38
-0.7663908 -1.6971468 0.84529585 4.1488005e-39
-0.75686103 -1.6949571 0.84512407 3.6881839e-39
-0.64182127 -1.6971453 0.84529656 4.6097801e-39
-0.63350534 -1.6950744 0.84410447 3.5030724e-39
-0.62975174 -1.6989985 0.84261382 2.5814762e-39
0.19340067 -1.6954578 0.84319943 4.6054164e-39
0.20515634 -1.6939265 0.84801549 9.7632822e-39
0.21509337 -1.6952437 0.84799838 1.1973797e-38
0.22513321 -1.6954675 0.84427941 1.2526605e-38
-0.76365525 -1.6856894 0.84529394 4.240636e-39
-0.7555415 -1.6853743 0.84454119 3.9647708e-39
-0.64376462 -1.6849178 0.84529924 4.7019757e-39
-0.63469183 -1.6860272 0.84436077 3.5034325e-39
0.19635622 -1.6846796 0.84457117 6.4475116e-39
0.20594461 -1.6843027 0.8477456 9.9476721e-39
0.21578886 -1.6849302 0.84744906 1.206635e-38
0.22361235 -1.6857165 0.84467942 1.261844e-38
-0.76357746 -1.6747872 0.84388322 3.595268e-39
-0.75446415 -1.6743393 0.84529442 4.79417e-39
-0.6507163 -1.6743319 0.84529799 5.0707568e-39
-0.6442346 -1.6743374 0.84529525 4.7938112e-39
-0.63511962 -1.6750808 0.84314591 2.3048893e-39
0.19547969 -1.6738706 0.84372503 5.7103151e-39
0.20441027 -1.6759156 0.84723485 9.8554764e-39
0.21577065 -1.676013 0.84718883 1.1974156e-38
0.22319168 -1.6758289 0.84458399 1.261844e-38
-0.75485373 -1.6668482 0.84529376 4.5172243e-39
-0.74677646 -1.6668445 0.84529561 5.1629511e-39
-0.65310192 -1.6668441 0.84529579 5.1629511e-39
-0.64341605 -1.6651404 0.84396839 3.3190413e-39
-0.63832134 -1.6678537 0.8424232 1.751717e-39
0.19554253 -1.6649903 0.84350318 4.6976107e-39
0.2049619 -1.6658061 0.84722501 9.9476721e-39
0.21329543 -1.6653349 0.84745055 1.1789767e-38
0.22389731 -1.666158 0.8438369 1.2710635e-38
-0.75388283 -1.6583084 0.84463668 3.3186811e-39
-0.74633914 -1.6550907 0.84483403 4.1484418e-39
-0.73707169 -1.6538676 0.84529638 5.0703967e-39
-0.72996712 -1.6520216 0.84529644 5.623209e-39
-0.67224741 -1.652023 0.84529573 5.8997944e-39
-0.66485119 -1.6538675 0.84529644 5.1629511e-39
-0.65503377 -1.6551005 0.84482938 4.3328331e-39
-0.64635485 -1.6566596 0.84394693 2.6736719e-39
0.19612102 -1.6531235 0.84387392 6.1712876e-39
0.20501594 -1.655645 0.84710634 9.8554778e-39
0.21631505 -1.6561109 0.84688216 1.2158185e-38
0.22452259 -1.6559768 0.84338391 1.2618799e-38
-0.74277896 -1.6454784 0.84372884 2.0283039e-39
-0.73534405 -1.6433353 0.84382784 3.0424544e-39
-0.72405261 -1.6446962 0.84529418 5.2547866e-39
-0.71446687 -1.6446952 0.84529465 6.6366378e-39
-0.70647681 -1.64469 0.84529716 8.203239e-39
-0.6936965 -1.64469 0.84529716 8.203239e-39
-0.68571121 -1.6446954 0.84529448 6.6366378e-39
-0.67612672 -1.6446972 0.8452937 5.3466221e-39
-0.6642015 -1.6434435 0.84413004 3.2268456e-39
-0.65608704 -1.6456534 0.84305364 1.6595213e-39
0.19611816 -1.643813 0.84395003 6.3553173e-39
0.20502415 -1.6451416 0.8472088 9.9476721e-39
0.21593428 -1.6455545 0.84700888 1.2065991e-38
0.2239397 -1.6451054 0.84391451 1.261844e-38
-0.73283046 -1.6387116 0.84348184 1.1063476e-39
-0.72430772 -1.6358949 0.84368044 2.3970864e-39
-0.71508491 -1.6338078 0.84352428 2.0283039e-39
-0.70567501 -1.6331273 0.84430093 2.6736733e-39
-0.6950323 -1.6325905 0.84412175 2.5814762e-39
-0.68540412 -1.6337926 0.84353155 2.1204995e-39
-0.67545372 -1.6357751 0.84373897 2.3048907e-39
-0.66663969 -1.6389413 0.8427785 1.2907388e-39
0.19533475 -1.6343651 0.8432501 4.6054164e-39
0.20555662 -1.6352556 0.84723514 9.8554778e-39
0.21347395 -1.6350288 0.84734571 1.1881603e-38
0.22481084 -1.6347849 0.84304523 1.2618799e-38
-0.70009172 -1.6296216 0.84204316 6.4572954e-40
0.19551831 -1.6243621 0.84346014 5.25006e-39
0.20311585 -1.6255652 0.84668505 9.4870583e-39
0.21490487 -1.6249712 0.84697628 1.2065991e-38
0.22299135 -1.6252581 0.84419507 1.2526605e-38
0.19677033 -1.6149172 0.84402525 6.9077652e-39
0.20613526 -1.6157299 0.84713489 1.0039866e-38
0.21492469 -1.6153762 0.84695852 1.2065991e-38
0.22359835 -1.6153922 0.84378994 1.2618799e-38
0.35986578 -1.6118877 0.84552646 2.6726279e-39
0.36002046 -1.6103414 0.84103298 2.5804337e-39
0.19601847 -1.6059395 0.8432315 5.986539e-39
0.20433119 -1.604404 0.8466208 9.8554764e-39
0.21462691 -1.6057619 0.84681755 1.1881961e-38
0.22205615 -1.6057113 0.84451336 1.2618799e-38
0.36146033 -1.6025454 0.84492373 2.6726279e-39
0.19575605 -1.5956334 0.84280205 4.6054164e-39
0.20487776 -1.5950996 0.84655666 9.671088e-39
0.21451321 -1.5953108 0.84655064 1.1974156e-38
0.22419673 -1.5951077 0.842834 1.2618799e-38
0.36467144 -1.5936279 0.84415799 2.2116526e-39
0.462587 -1.5906351 0.84043765 4.5172846e-39
0.19526227 -1.5849589 0.8421523 5.2497013e-39
0.20380329 -1.5843214 0.84594846 9.2108329e-39
0.21651846 -1.5849273 0.84593177 1.2158185e-38
0.22415698 -1.584426 0.84242296 1.2526605e-38
0.36806527 -1.5871922 0.8456549 2.3042069e-39
0.37189773 -1.5821065 0.84475136 1.9357859e-39
0.45712972 -1.5823803 0.84461117 4.3325276e-39
0.46120533 -1.5880351 0.84696686 5.0686521e-39
0.19700392 -1.5748335 0.84290266 5.8947035e-39
0.20612738 -1.5751619 0.84619647 1.0223896e-38
0.21416047 -1.5752763 0.84613866 1.1881961e-38
0.22264099 -1.5751095 0.84310794 1.2526605e-38
0.37710658 -1.5763901 0.84418482 2.304567e-39
0.38243023 -1.5720491 0.84466463 1.8439504e-39
0.44757882 -1.5730155 0.8452093 3.5953171e-39
0.45281637 -1.5773268 0.84544086 3.7800713e-39
0.19653638 -1.5646211 0.84213495 5.1578658e-39
0.20393369 -1.5645117 0.84541023 9.3026684e-39
0.21559808 -1.5645643 0.84538269 1.206635e-38
0.2218972 -1.567983 0.84328842 1.2526605e-38
0.38795528 -1.5686713 0.84465975 1.6592004e-39
0.39495957 -1.5654001 0.84518135 1.0134765e-39
0.40481558 -1.5627034 0.84457821 4.7934721e-39
0.41520685 -1.5618639 0.84435111 8.4809147e-39
0.42525545 -1.5629116 0.84415811 3.4109062e-39
0.43533066 -1.566002 0.84559184 1.9357943e-39
0.4419353 -1.5692581 0.84435958 3.4105629e-39
0.19680263 -1.5561339 0.84191185 6.079092e-39
0.20464809 -1.5545611 0.84501576 9.0268032e-39
0.21418962 -1.5565705 0.84535468 1.1974156e-38
0.22311246 -1.5542216 0.841757 1.261844e-38
0.19783165 -1.5451037 0.84190845 5.1578658e-39
0.2057512 -1.5447961 0.84492254 9.7632822e-39
0.21490403 -1.5450937 0.84476852 1.2065991e-38
0.22267786 -1.5449849 0.84139812 1.2526605e-38
-0.066929713 -1.53075 0.84541202 1.1779175e-40
0.098921634 -1.5317168 0.84490657 8.6689368e-40
0.19811662 -1.5370116 0.8415696 6.079092e-39
0.20415989 -1.5340059 0.84405309 8.8424147e-39
0.21566541 -1.5342081 0.84394664 1.2065991e-38
0.22223568 -1.5357682 0.84108543 1.2526246e-38
0.095506094 -1.5201217 0.84250957 8.6617341e-40
0.19816849 -1.5263219 0.84093571 4.2369983e-39
0.20489441 -1.5246202 0.84353328 9.0264444e-39
0.21500708 -1.5255746 0.84359837 1.2065991e-38
0.22205432 -1.5240842 0.84041393 1.2434411e-38
-0.062067948 -1.5150452 0.84316683 1.1779175e-40
-0.059942693 -1.5100695 0.84782571 1.1779175e-40
0.093439221 -1.5154623 0.84700477 8.6581187e-40
0.19970037 -1.510551 0.84081477 4.2369983e-39
0.20516072 -1.5153348 0.84310907 9.3026684e-39
0.21434355 -1.5148973 0.84324443 1.2065991e-38
0.2210438 -1.5144868 0.84041393 1.2342575e-38
-0.056825597 -1.5046765 0.84394628 1.1779175e-40
0.087364651 -1.5036713 0.84616834 8.6437134e-40
0.20498388 -1.5043678 0.84242946 8.842056e-39
0.2138586 -1.5039555 0.84265035 1.2157827e-38
0.22005966 -1.505103 0.84034562 1.2342575e-38
-0.052035969 -1.4975243 0.84608573 1.1779175e-40
-0.047402408 -1.4914494 0.84430879 1.1779175e-40
0.079647519 -1.4929084 0.84352356 8.6328954e-40
0.082709976 -1.4968559 0.84476215 8.6364967e-40
0.20456368 -1.4945003 0.84154993 9.0264444e-39
0.2165406 -1.4946568 0.84124202 1.225038e-38
-0.042780548 -1.4864668 0.84531927 1.1779175e-40
-0.038206879 -1.4820499 0.84603184 1.1779175e-40
0.067515284 -1.4818302 0.84615058 9.5332296e-40
0.073554635 -1.4868641 0.84454751 9.536817e-40
0.20677097 -1.4860736 0.84185159 9.2108329e-39
0.21491137 -1.4846907 0.84126186 1.2158185e-38
-0.03372521 -1.47866 0.84453011 1.1779175e-40
-0.024784854 -1.4732312 0.84498262 1.1779175e-40
0.049733024 -1.470642 0.84556073 3.065168e-39
0.055638127 -1.4738637 0.84491569 9.0427429e-39
0.063059844 -1.4786228 0.84455055 2.6070752e-39
0.20518439 -1.475643 0.84117007 8.9342502e-39
0.21324229 -1.474377 0.84152776 1.2158185e-38
-0.01445382 -1.4682463 0.84465259 1.1779175e-40
-0.0056628087 -1.4655986 0.84499383 1.1779175e-40
0.0045517907 -1.4637208 0.84602183 2.4161931e-39
0.014732457 -1.4633232 0.84623951 8.3923261e-39
0.024909809 -1.4641696 0.84577608 2.2321634e-39
0.035105757 -1.4658117 0.844877 9.4719368e-40
0.043872107 -1.4682244 0.84466463 1.1333856e-39
0.2062503 -1.4644725 0.84146261 9.3030285e-39
0.21473216 -1.4642563 0.84130543 1.225038e-38
0.20667848 -1.4558721 0.84172952 9.3026698e-39
0.21404001 -1.455429 0.84147727 1.2158185e-38
0.20526807 -1.4476055 0.84168524 8.9342502e-39
0.21389063 -1.4473156 0.84184676 1.2342215e-38
0.19700718 -1.4332137 0.84424406 4.427921e-39
0.2051762 -1.4339193 0.84439576 5.7193829e-39
0.21519361 -1.433919 0.84439594 5.7193829e-39
0.22176307 -1.4329439 0.84439564 5.7193829e-39
0.26917315 -1.430992 0.84439594 5.7193829e-39
0.2723757 -1.4328978 0.84332561 2.3981724e-39
0.19574472 -1.4251711 0.84439862 5.7193829e-39
0.20429002 -1.4251747 0.84439665 5.7193829e-39
0.2156833 -1.4251759 0.844396 5.7193829e-39
0.22280408 -1.4251763 0.8443957 5.7193829e-39
0.25983256 -1.4251808 0.84439313 5.7193829e-39
0.26489395 -1.424251 0.8436116 4.2431682e-39
0.14199485 -1.4104583 0.84621423 1.6606059e-39
0.15904425 -1.4115407 0.84559858 6.4573094e-39
0.1622581 -1.4153197 0.84344923 6.272558e-39
0.17465863 -1.41083 0.84275109 5.9037741e-39
0.18314475 -1.4108841 0.84272003 5.5346315e-39
0.19491032 -1.4165294 0.84439403 5.7193829e-39
0.20483084 -1.4165254 0.84439641 5.7193829e-39
0.21475172 -1.4165242 0.84439719 5.7193829e-39
0.22404012 -1.4159511 0.84439641 5.7193829e-39
0.23425351 -1.4136572 0.84439486 5.7193829e-39
0.24527289 -1.4161166 0.84439558 5.7193829e-39
0.25493062 -1.4162748 0.84363401 4.2435297e-39
0.26218751 -1.4196364 0.840994 1.8449958e-39
0.14504822 -1.4049027 0.84484148 3.5974386e-39
0.15468848 -1.4048226 0.84559655 5.4424344e-39
0.16529642 -1.4046669 0.84273523 6.640979e-39
0.17560931 -1.4047232 0.84137207 5.442433e-39
0.1856339 -1.4052801 0.84231687 4.3357253e-39
0.19521599 -1.405115 0.84439635 5.7193829e-39
0.2050738 -1.4051148 0.84439635 5.7193829e-39
0.21493149 -1.4051138 0.84439689 5.7193829e-39
0.22478926 -1.4051135 0.84439713 5.7193829e-39
0.23457204 -1.4039565 0.84343827 3.8743857e-39
0.24437131 -1.4069201 0.84281993 2.9517077e-39
0.1469529 -1.3982888 0.84183162 3.1364591e-39
0.15482959 -1.3982974 0.84150237 3.3208504e-39
0.18909244 -1.399128 0.84296781 0
0.194709 -1.399128 0.84296781 0
0.20453796 -1.399128 0.84296781 0
0.21577105 -1.3991278 0.84296787 0
0.2256148 -1.3992246 0.8429122 9.219563e-41
0.20940743 -1.7246001 0.85067785 1.0408286e-38
0.2088515 -1.7180473 0.8500576 1.0408286e-38
0.3595587 -1.614984 0.85449648 4.9702992e-39
0.36088777 -1.6044189 0.8544541 5.0621332e-39
0.36412653 -1.5949649 0.85465986 5.2454427e-39
0.46470088 -1.5946107 0.85582602 1.03994e-38
0.36831966 -1.5869849 0.85545838 6.5350913e-39
0.37177414 -1.5822561 0.85418856 4.9717411e-39
0.45756578 -1.5829151 0.85472572 9.2073395e-39
0.3767716 -1.5767601 0.85484689 5.6145826e-39
0.38246998 -1.5720719 0.8544175 5.4312731e-39
0.44578516 -1.5716724 0.85519058 8.1895792e-39
0.45223624 -1.5769689 0.85597211 9.2973673e-39
0.38734737 -1.5689948 0.85413468 4.9713782e-39
0.3950054 -1.5654262 0.85537362 6.1659529e-39
0.40509343 -1.5626463 0.85425502 6.8185221e-39
0.4146232 -1.5618097 0.85502118 8.6656647e-39
0.42402464 -1.5626916 0.85457474 6.8170816e-39
0.43373013 -1.5653901 0.85492438 6.9024389e-39
0.44050407 -1.5684899 0.85507494 7.6382047e-39
0.098697908 -1.5310116 0.85375857 8.6689368e-40
-0.066541381 -1.5278798 0.8553769 1.1779175e-40
-0.063096851 -1.5173618 0.85409874 1.1779175e-40
0.093894653 -1.5165726 0.85586131 8.6581328e-40
-0.058167279 -1.5069851 0.85449451 1.1779175e-40
0.086864464 -1.5029603 0.85560513 8.6437134e-40
-0.051511317 -1.4968548 0.85548174 1.1779175e-40
-0.047189031 -1.4912523 0.85444492 1.1779175e-40
0.079474859 -1.4928259 0.85360914 8.6328954e-40
0.08252459 -1.4966841 0.85490257 8.6364967e-40
-0.04258433 -1.4863386 0.85539389 1.1779175e-40
-0.038026601 -1.4819733 0.8560583 1.1779175e-40
0.06738051 -1.4818012 0.85615015 1.4132179e-39
0.073402844 -1.4868588 0.854563 9.536817e-40
-0.0335581 -1.4785801 0.85455459 1.1779175e-40
-0.024644755 -1.4731618 0.85497826 1.1779175e-40
0.049651373 -1.4706459 0.85550386 9.5079922e-40
0.055540491 -1.4739261 0.85484338 3.8020128e-39
0.062939472 -1.4786401 0.85452253 8.1236705e-39
-0.01434714 -1.4682809 0.85457534 1.1779175e-40
-0.0055829594 -1.4656857 0.8548761 2.2321634e-39
0.0046034395 -1.463703 0.85594755 8.3923261e-39
0.014753904 -1.4633238 0.85615271 8.7603869e-39
0.024901303 -1.4642001 0.85567886 4.3468951e-39
0.035067443 -1.46585 0.85478741 8.5535819e-40
0.043808486 -1.4682801 0.85457581 8.5715886e-40
0.35992962 -1.621979 0.86331189 8.5586994e-39
0.36019045 -1.6247005 0.86548877 8.5565372e-39
0.35966939 -1.6192626 0.86113805 8.4636213e-39
0.36090747 -1.604987 0.86631298 8.46002e-39
0.36399245 -1.5953398 0.86525303 8.4600186e-39
0.46331838 -1.5920135 0.86228788 1.4432201e-38
0.3681713 -1.5871391 0.86365306 8.4589382e-39
0.37152043 -1.5825638 0.86521721 8.5590596e-39
0.45799491 -1.5834395 0.8647843 1.4082149e-38
0.46194136 -1.5894231 0.86871755 1.4708424e-38
0.37639916 -1.5772054 0.86512029 8.4614605e-39
0.3834137 -1.5713463 0.8639195 8.3627811e-39
0.44785452 -1.5732433 0.86639696 1.2135955e-38
0.45253548 -1.5771703 0.86445409 1.3065474e-38
0.38803074 -1.5686309 0.86612099 8.3627811e-39
0.39487073 -1.5654883 0.8646633 8.3627811e-39
0.40457022 -1.562701 0.86481434 8.4675842e-39
0.41457614 -1.5618789 0.86553425 8.6645843e-39
0.42541605 -1.562988 0.86433029 8.7402082e-39
0.43581921 -1.5662298 0.86475873 1.0017618e-38
0.44267163 -1.5696541 0.86475986 1.1212197e-38
0.098475397 -1.5303102 0.8625626 8.6689368e-40
-0.066141039 -1.5247803 0.86539185 1.1779175e-40
0.098342896 -1.5298988 0.86781669 8.6689368e-40
-0.062798895 -1.5165035 0.86461395 1.1779175e-40
0.093062118 -1.5148572 0.86412936 8.6545174e-40
-0.057906706 -1.5065064 0.86477381 1.1779175e-40
0.08699926 -1.5033164 0.86476225 8.6473147e-40
-0.051947944 -1.4975249 0.86379015 1.1779175e-40
-0.047722451 -1.4919949 0.86568546 1.1779175e-40
0.079303227 -1.4927438 0.86363441 9.5512503e-40
0.082340755 -1.4965235 0.86497575 8.6364967e-40
-0.04238455 -1.4861048 0.86546379 1.1779175e-40
-0.037840981 -1.4817437 0.86610579 1.1779175e-40
0.067246526 -1.4817724 0.86609077 5.1827836e-39
0.073252052 -1.4868554 0.86451882 1.1373527e-39
-0.03338955 -1.478439 0.86455172 1.1779175e-40
-0.024505707 -1.4730996 0.86491078 1.1779175e-40
0.049571525 -1.4707178 0.86535239 9.5115936e-40
0.055443201 -1.4739795 0.86471814 1.1355506e-39
0.06281957 -1.4786487 0.86444086 9.3189683e-39
-0.014235881 -1.4683435 0.864972 1.6804315e-39
-0.0055025322 -1.465719 0.86472976 7.1970283e-39
0.0046546659 -1.4636941 0.86581022 4.5309248e-39
0.014775153 -1.4633347 0.8660019 2.50803e-39
0.024892859 -1.4642444 0.86551666 5.5421929e-39
0.035029564 -1.4659077 0.86462909 2.6016675e-39
0.043741427 -1.4683254 0.86498165 8.5716026e-40
0.35993081 -1.6112289 0.87711644 8.0051599e-39
0.36119255 -1.6040803 0.87536788 8.1899127e-39
0.36475679 -1.5934259 0.87534523 8.2795874e-39
0.46495616 -1.5950906 0.87967616 1.3810227e-38
0.36824414 -1.5868573 0.87509841 8.1870302e-39
0.3719326 -1.5820627 0.87571985 8.2824713e-39
0.4560717 -1.5810875 0.87619203 1.2890079e-38
0.46058372 -1.586885 0.87508607 1.3802671e-38
0.37709656 -1.5763973 0.87507266 8.2799503e-39
0.38225272 -1.5721887 0.87470049 8.1837918e-39
0.446307 -1.5720206 0.87449247 1.1588542e-38
0.45222083 -1.5768374 0.87485677 1.2609535e-38
0.38784775 -1.5687281 0.87542647 8.1848722e-39
0.39489785 -1.5654292 0.8747859 8.1834317e-39
0.404982 -1.5626937 0.87500292 8.4711855e-39
0.41539717 -1.5618306 0.87542796 8.7571401e-39
0.42477438 -1.5628189 0.87494105 8.5615791e-39
0.43454129 -1.565684 0.87466025 9.5660018e-39
0.44124588 -1.568889 0.87534696 1.0670905e-38
-0.065851375 -1.523502 0.87440413 1.1779175e-40
0.098174758 -1.5295029 0.87471443 8.6689368e-40
-0.062480628 -1.5152626 0.8752529 1.1779175e-40
0.093179941 -1.5152855 0.8735823 8.6545174e-40
-0.057646379 -1.5060043 0.87500006 1.1779175e-40
0.086804278 -1.5031939 0.87478238 8.6473147e-40
-0.052960873 -1.4988794 0.8736921 1.1779175e-40
-0.048286106 -1.4927045 0.87522751 1.1779175e-40
0.079132609 -1.492662 0.87360007 9.5512503e-40
0.082158923 -1.4963855 0.87497693 8.640098e-40
-0.042185724 -1.4858661 0.87547493 1.1779175e-40
-0.037656289 -1.4815103 0.87609404 1.1779175e-40
0.067113332 -1.4817438 0.87597275 7.2056799e-39
0.073092893 -1.4868317 0.87497413 1.2295483e-39
-0.033222731 -1.4783169 0.87447888 1.1779175e-40
-0.025253633 -1.4735157 0.8743704 1.1779175e-40
-0.019938298 -1.4706912 0.8768295 1.1779175e-40
0.049492005 -1.4707826 0.87514782 9.5115936e-40
0.055346128 -1.4740183 0.87454319 9.5152089e-40
0.062700465 -1.4786609 0.87429929 7.848164e-39
-0.014124225 -1.4683598 0.87533045 6.8293276e-39
-0.0054223626 -1.4657419 0.87453169 2.2321634e-39
0.0047056591 -1.4636821 0.87561637 4.162864e-39
0.014796262 -1.4633476 0.87579244 1.1290598e-39
0.024884472 -1.464291 0.87529582 1.0372243e-39
0.034991827 -1.4659591 0.8744173 6.6474586e-39
0.043675147 -1.4683869 0.8753162 8.5716026e-40
0.35967565 -1.6137801 0.88450497 7.0000029e-39
0.36099443 -1.604066 0.88565844 6.8170494e-39
0.3641187 -1.594987 0.88484579 6.7252167e-39
0.46358222 -1.5925102 0.88602185 1.2159337e-38
0.36838156 -1.5868814 0.88632709 6.6330197e-39
0.37180996 -1.582211 0.88499689 6.6333798e-39
0.4588519 -1.5844899 0.88475209 1.1606887e-38
0.37676439 -1.5767637 0.88555747 6.5408254e-39
0.38241324 -1.5721135 0.88506287 6.5408254e-39
0.4457632 -1.5716826 0.88346922 9.6740237e-39
0.45215949 -1.5769653 0.88565505 1.0410504e-38
0.38724536 -1.5690485 0.88474369 6.5411842e-39
0.39534295 -1.5653192 0.88469666 6.4489899e-39
0.40536338 -1.5625714 0.8851884 7.188364e-39
0.41425782 -1.5618093 0.88555861 8.6653046e-39
0.42416272 -1.5627501 0.88543826 8.0181247e-39
0.43474445 -1.5658399 0.88472569 8.0148681e-39
0.44161263 -1.5690863 0.88540053 8.9364615e-39
-0.065512061 -1.5220776 0.88509399 1.1779175e-40
0.097923853 -1.5289119 0.88500804 8.6689368e-40
-0.062159549 -1.5139409 0.885858 1.1779175e-40
0.092960663 -1.5150242 0.88366556 8.6545174e-40
-0.057387646 -1.5055046 0.88516039 1.1779175e-40
0.086609133 -1.5030426 0.88475734 8.6473147e-40
-0.052720476 -1.4984474 0.88380003 1.1779175e-40
-0.048066873 -1.4924039 0.8852365 1.1779175e-40
0.07896287 -1.4925772 0.88350838 9.5512503e-40
0.08197847 -1.4962546 0.88491464 8.640098e-40
-0.041987706 -1.4856199 0.88542908 1.1779175e-40
-0.037476882 -1.4813781 0.8859697 1.1779175e-40
0.068165578 -1.4827077 0.88594121 5.5504858e-39
0.073790535 -1.4875622 0.88513595 1.0455186e-39
-0.033058096 -1.4782268 0.88433027 1.1779175e-40
-0.025686353 -1.4737256 0.88502377 1.1779175e-40
-0.019835018 -1.4706501 0.88498861 1.1779175e-40
0.049412947 -1.4708468 0.88488692 9.5115936e-40
0.055244099 -1.474057 0.88485289 9.5151949e-40
0.062582485 -1.4786886 0.88409251 7.5722988e-39
-0.013724399 -1.4682845 0.88556349 6.2775957e-39
-0.0053427084 -1.4657682 0.88427478 1.1779175e-40
0.0047563687 -1.4636692 0.88536566 4.3468951e-39
0.014817246 -1.4633604 0.88552594 9.4503008e-40
0.024876138 -1.4643391 0.8850174 1.1779175e-40
0.03495435 -1.4660145 0.88414687 6.8314884e-39
0.043320805 -1.468349 0.88552999 1.6847573e-39
0.35974687 -1.62008 0.89527768 8.203239e-39
0.36013392 -1.6241207 0.89855009 8.2035992e-39
0.35948065 -1.6166058 0.89175439 7.6489793e-39
0.36091048 -1.6045943 0.89563811 7.464588e-39
0.36419889 -1.5949088 0.89451003 6.9106897e-39
0.36823565 -1.5870403 0.89438045 6.5408254e-39
0.37155828 -1.5825163 0.89584088 6.5411842e-39
0.45693398 -1.5821432 0.89601564 1.1148429e-38
0.46176061 -1.5890856 0.89442843 1.1885633e-38
0.37669671 -1.5769016 0.8951323 6.4486284e-39
0.38334766 -1.5713886 0.89439344 6.540824e-39
0.44730553 -1.5727922 0.8954041 9.5814651e-39
0.45298037 -1.5774847 0.89485431 1.0318669e-38
0.38792321 -1.5686877 0.89651895 6.540824e-39
0.39478597 -1.565508 0.89415383 6.2645973e-39
0.40485469 -1.5626738 0.89554089 7.0954467e-39
0.41510609 -1.561884 0.89528078 8.6653046e-39
0.42552122 -1.5629654 0.89506656 7.7411735e-39
0.43527758 -1.5659746 0.89474255 7.9230312e-39
0.44197941 -1.5692835 0.89539671 8.8442644e-39
-0.065175354 -1.5206639 0.89570165 1.1779175e-40
0.097675227 -1.5283371 0.89522809 8.6689508e-40
-0.061873663 -1.5132009 0.89609987 1.1779175e-40
0.092742652 -1.5147625 0.89368773 8.6545174e-40
-0.057129696 -1.5049919 0.8952629 1.1779175e-40
0.086415321 -1.502895 0.89467102 8.6437134e-40
-0.05248161 -1.4980181 0.89384335 1.1779175e-40
-0.047849227 -1.4921097 0.89518076 1.1779175e-40
0.078766838 -1.492497 0.89498305 9.5512503e-40
0.081799373 -1.4961318 0.89478946 8.640098e-40
-0.041789632 -1.4853464 0.89533639 1.1779175e-40
-0.037299652 -1.4812735 0.89577264 1.1779175e-40
0.068337642 -1.4829354 0.89493161 5.1824221e-39
0.074266978 -1.4880949 0.89557356 9.536831e-40
-0.032893036 -1.4781002 0.89414209 1.1779175e-40
-0.025537094 -1.4736409 0.89533222 1.1779175e-40
-0.019712729 -1.4706349 0.89471084 1.1779175e-40
0.049334336 -1.4709107 0.89457005 9.5115936e-40
0.055143323 -1.474111 0.8950932 9.5151809e-40
0.062664114 -1.4788605 0.8946808 7.8481654e-39
-0.013904078 -1.468405 0.89584923 5.3585219e-39
-0.0055458993 -1.4658576 0.89457309 1.1779175e-40
0.0048067495 -1.4636599 0.89505583 4.3468951e-39
0.014838078 -1.4633836 0.89519763 9.4503008e-40
0.024867855 -1.4643887 0.89468217 1.1779175e-40
0.035201695 -1.4661347 0.89443094 6.1875637e-39
0.04354471 -1.4685113 0.89579517 2.2364892e-39
0.35994381 -1.6110874 0.9096027 7.7429938e-39
0.3600449 -1.6100743 0.90668094 8.0195751e-39
0.36118871 -1.6041784 0.9032954 8.2954375e-39
0.36473483 -1.5934212 0.90517807 8.2954375e-39
0.46475223 -1.594708 0.90530372 1.4932071e-38
0.36841989 -1.5865282 0.9040553 8.1106847e-39
0.37178084 -1.5822456 0.9053812 8.1106847e-39
0.45814154 -1.5836223 0.90541166 1.3272548e-38
0.46040231 -1.5865295 0.90069252 1.3086351e-38
0.37660024 -1.5769089 0.90471548 7.4645894e-39
0.3824617 -1.5720152 0.90414733 7.0947223e-39
0.44554859 -1.5715039 0.90505618 1.0228645e-38
0.4522846 -1.577057 0.90596211 1.1981449e-38
0.38774204 -1.5687838 0.90566707 7.0025266e-39
0.39449215 -1.5655732 0.90451276 6.5408254e-39
0.40471593 -1.5627432 0.90518385 7.0958055e-39
0.41502345 -1.5618155 0.90562218 8.6656647e-39
0.42430404 -1.5627364 0.90518689 7.9259277e-39
0.43362632 -1.5653402 0.90437359 7.7390015e-39
0.44056857 -1.5685264 0.90578753 9.3985242e-39
-0.068865001 -1.542649 0.90810221 1.1779175e-40
0.097429663 -1.5277945 0.90536761 8.6689368e-40
-0.063221894 -1.5159732 0.90619677 1.1779175e-40
0.092525929 -1.5145016 0.90364903 8.6545174e-40
-0.056872323 -1.5044624 0.90530986 1.1779175e-40
0.086428501 -1.5030975 0.90528256 8.6437134e-40
-0.052244276 -1.4975915 0.90382266 1.1779175e-40
-0.048402965 -1.4927508 0.9046005 1.1779175e-40
0.078573704 -1.4924582 0.90636253 9.5440336e-40
0.081621401 -1.4960108 0.90460485 8.640098e-40
-0.042716436 -1.4862642 0.90539885 1.1779175e-40
-0.037121821 -1.4811292 0.90553731 1.1779175e-40
0.068202429 -1.4829074 0.90464956 5.5501242e-39
0.074113928 -1.4880481 0.90531689 9.536845e-40
-0.032923635 -1.478091 0.90475571 1.1779175e-40
-0.025396166 -1.4735532 0.90504223 1.1779175e-40
-0.019591251 -1.4706231 0.90437478 1.1779175e-40
0.049256045 -1.4709677 0.90420133 9.5115796e-40
0.054753482 -1.473999 0.90524614 9.5115936e-40
0.06232737 -1.4787089 0.90513724 7.2042394e-39
-0.013799544 -1.4683942 0.90549755 5.3581632e-39
-0.0051739048 -1.4657599 0.90469044 1.1779175e-40
0.0048567546 -1.4636598 0.90468526 4.3468951e-39
0.014858756 -1.463415 0.90480912 9.4503008e-40
0.024859602 -1.4644318 0.90429455 1.1779175e-40
0.034872968 -1.4661305 0.90503645 5.8198616e-39
0.043483064 -1.4685729 0.90540779 2.3283261e-39
0.35974172 -1.6131109 0.91544056 6.176038e-39
0.36119288 -1.6034125 0.91477478 8.2957976e-39
0.36420488 -1.5947615 0.91535854 8.3879932e-39
0.46293584 -1.5912967 0.9135915 1.4748043e-38
0.36836123 -1.5868816 0.91561478 8.3879932e-39
0.37205544 -1.5819117 0.91422689 8.3879932e-39
0.45778826 -1.58319 0.91563922 1.3642057e-38
0.46158159 -1.5887514 0.91976702 1.437962e-38
0.37675735 -1.5767672 0.91574258 8.2957976e-39
0.38210896 -1.5723493 0.91446155 8.3883534e-39
0.44763145 -1.5730611 0.9156512 1.1982897e-38
0.45291632 -1.5775548 0.91407263 1.27201e-38
0.38714507 -1.5691013 0.91483051 8.3879932e-39
0.39516792 -1.5653791 0.91473788 8.1110448e-39
0.40509292 -1.562614 0.91519749 8.2032404e-39
0.41497335 -1.5618737 0.91584295 8.7575002e-39
0.42567903 -1.563044 0.91466606 8.6642186e-39
0.43601471 -1.5662942 0.91458768 9.9545959e-39
0.44270501 -1.5696735 0.91522795 1.1152778e-38
-0.06841211 -1.5373399 0.91555047 1.1779175e-40
0.097193182 -1.5274028 0.91537142 8.6689368e-40
-0.062932037 -1.5152011 0.91633397 1.1779175e-40
0.09231168 -1.5142665 0.91353774 8.6545314e-40
-0.056614969 -1.5039045 0.91530728 1.1779175e-40
0.085999124 -1.5025908 0.9159441 8.6473007e-40
-0.052007835 -1.4971558 0.91374439 1.1779175e-40
-0.04891092 -1.4931942 0.91567773 1.1779175e-40
0.078410171 -1.4924492 0.91604143 9.5440336e-40
0.08144448 -1.4958906 0.91436189 8.640098e-40
-0.044390738 -1.4878992 0.91505337 1.1779175e-40
-0.038434908 -1.482193 0.91464901 1.1779175e-40
0.068067722 -1.4828712 0.91431504 5.9178249e-39
0.073961616 -1.4879967 0.91500562 9.536845e-40
-0.032537878 -1.4778248 0.91520238 1.1779175e-40
-0.024959298 -1.4733182 0.91519308 1.1779175e-40
-0.019470174 -1.4706011 0.9139877 1.1779175e-40
0.049177941 -1.4710102 0.91378433 9.5115796e-40
0.054944273 -1.4742179 0.91538662 9.5151809e-40
0.062209964 -1.4786805 0.91478008 7.0205684e-39
-0.013694971 -1.4683582 0.91510242 5.2663277e-39
-0.0048267562 -1.4656688 0.91528088 1.1779175e-40
0.0049063568 -1.4636718 0.91425252 4.4387306e-39
0.014879208 -1.4634622 0.9143573 8.5319318e-40
0.025179405 -1.4645227 0.91431689 1.1779175e-40
0.034547109 -1.4661168 0.91557932 5.1759341e-39
0.04342173 -1.4686322 0.91496629 2.3286848e-39
0.35982293 -1.6208827 0.92880905 1.6588403e-39
0.3595154 -1.616497 0.92402834 3.8711613e-39
0.36055693 -1.6056414 0.9255088 7.8351838e-39
0.46720183 -1.602115 0.92374402 1.4840606e-38
0.36357889 -1.5963235 0.92467672 8.3879918e-39
0.36801076 -1.5874475 0.92534906 8.3879932e-39
0.3715955 -1.5824696 0.92594057 8.3876331e-39
0.45743895 -1.5827632 0.92581016 1.3734252e-38
0.46068239 -1.5870594 0.92386359 1.4287425e-38
0.3766903 -1.5769039 0.92515659 8.4801889e-39
0.38328278 -1.5714297 0.92434865 8.3879918e-39
0.44628859 -1.5720065 0.92474604 1.1798506e-38
0.45211765 -1.5767533 0.92522424 1.2812659e-38
0.38823229 -1.5685225 0.92633694 8.388352e-39
0.394831 -1.5654594 0.92438489 8.3879932e-39
0.40506765 -1.5626557 0.92537326 8.5723873e-39
0.41522819 -1.5618601 0.92511064 8.7575002e-39
0.42504257 -1.5628653 0.9249776 8.6649403e-39
0.43468371 -1.5657371 0.92475677 9.8631205e-39
0.44129935 -1.5689193 0.92549592 1.0968746e-38
-0.067906737 -1.5325584 0.92595416 1.1779175e-40
0.096960895 -1.5270666 0.92528766 8.6689368e-40
-0.062647961 -1.5144991 0.92637175 1.1779175e-40
0.092067137 -1.5140727 0.92495978 8.6581328e-40
-0.056359738 -1.5033575 0.92523605 1.1779175e-40
0.086126529 -1.5029416 0.92511481 8.6437134e-40
-0.051773164 -1.4967279 0.92360049 1.1779175e-40
-0.048682693 -1.4926988 0.92553997 1.1779175e-40
0.07824631 -1.4924082 0.92568016 9.5440336e-40
0.082006425 -1.4968145 0.92516327 8.640084e-40
-0.044185594 -1.4875966 0.92480665 1.1779175e-40
-0.038254447 -1.4820442 0.92430872 1.1779175e-40
0.068130866 -1.4829915 0.92475855 5.6419597e-39
0.073810093 -1.4879435 0.92463899 9.536845e-40
-0.032375846 -1.4776992 0.92483073 1.1779175e-40
-0.025102248 -1.4733648 0.92535508 1.1779175e-40
-0.019326011 -1.4704442 0.92519462 1.1779175e-40
0.049088068 -1.4710951 0.92487651 9.5043769e-40
0.054849714 -1.4742388 0.92492878 9.5115796e-40
0.061876949 -1.4785134 0.92511493 6.4688365e-39
-0.013590064 -1.4682873 0.92466831 5.1744922e-39
-0.0049998239 -1.4657271 0.92592376 1.1779175e-40
0.0046302471 -1.4637477 0.92421949 4.162864e-39
0.01489939 -1.4635353 0.92383808 8.5319318e-40
0.024556991 -1.4644904 0.92526436 1.1779175e-40
0.034794137 -1.4662213 0.92568135 5.7280261e-39
0.0433609 -1.4686973 0.9244675 2.4205217e-39
0.36020651 -1.6248877 0.93209058 2.7644578e-39
0.36107686 -1.6046888 0.93427414 6.9117814e-39
0.36482167 -1.5932401 0.9353056 7.9262892e-39
0.46364856 -1.5926358 0.93462497 1.4193783e-38
0.36847746 -1.5864186 0.93409014 8.4801889e-39
0.37200046 -1.5819775 0.93607265 8.4801889e-39
0.45779163 -1.5831956 0.93388009 1.3734252e-38
0.37659463 -1.5769112 0.93457735 8.3879932e-39
0.38214475 -1.5722698 0.93478626 8.3879918e-39
0.44575262 -1.5716734 0.93346053 1.1798507e-38
0.4520494 -1.5768509 0.9357335 1.2812658e-38
0.38763812 -1.5688382 0.93539494 8.3879932e-39
0.39508966 -1.5653776 0.93499148 8.3879932e-39
0.40487137 -1.5627002 0.93459666 8.572746e-39
0.41465765 -1.5618066 0.9352985 8.7578604e-39
0.4244388 -1.5627974 0.93517685 8.7571359e-39
0.43498951 -1.5659088 0.93507922 9.9553175e-39
0.44166082 -1.5691137 0.93527114 1.0876908e-38
-0.067476608 -1.5289831 0.93571311 1.1779175e-40
0.096722864 -1.5265908 0.93520832 8.6653494e-40
-0.062369455 -1.5138663 0.93631226 1.1779175e-40
0.091829635 -1.5139955 0.93625242 8.6617341e-40
-0.056105424 -1.5028018 0.93510652 1.1779175e-40
0.087145649 -1.504817 0.93575257 8.6545174e-40
-0.051499996 -1.4962066 0.93503082 1.1779175e-40
-0.048459511 -1.4922799 0.93530434 1.1779175e-40
0.078078777 -1.4922477 0.9353196 9.5440477e-40
0.082598001 -1.4978148 0.93427277 8.640098e-40
-0.043982923 -1.4873227 0.93448716 1.1779175e-40
-0.038270514 -1.4820845 0.93472475 1.1779175e-40
0.067777067 -1.4827694 0.93507689 5.7337952e-39
0.07385429 -1.488013 0.93506449 9.536831e-40
-0.031987429 -1.4772332 0.93524182 1.1779175e-40
-0.024960795 -1.4731876 0.93493205 1.1779175e-40
-0.019180743 -1.4702176 0.93636179 5.5421929e-39
0.048998397 -1.4711603 0.93590802 9.5043769e-40
0.055037521 -1.4744194 0.93497026 2.9740542e-39
0.061958935 -1.4786305 0.93547553 9.962537e-39
-0.013485637 -1.4682122 0.93418068 5.0822979e-39
-0.0049217572 -1.4657099 0.93539077 1.1779175e-40
0.0052977577 -1.463728 0.93509161 5.3581632e-39
0.014922768 -1.4636239 0.93482757 9.4503008e-40
0.024832465 -1.4645864 0.93593425 1.1779175e-40
0.034757681 -1.4662635 0.93512315 5.635829e-39
0.04358137 -1.4688623 0.93449593 2.2364906e-39
0.35980639 -1.6124526 0.9458285 5.7143368e-39
0.36000663 -1.610446 0.94006062 6.4518948e-39
0.36129501 -1.6030742 0.94492358 6.6337399e-39
0.36428964 -1.59454 0.94534636 6.6333784e-39
0.3680962 -1.5872647 0.94556892 6.9106897e-39
0.37151322 -1.582569 0.94500959 7.7415378e-39
0.45674443 -1.5819143 0.945952 1.2441702e-38
0.46140569 -1.5884225 0.94473362 1.2254781e-38
0.37675041 -1.5767707 0.94541585 8.3879932e-39
0.3827444 -1.5718859 0.94477993 8.3879932e-39
0.44727293 -1.5727669 0.94508815 1.2075094e-38
0.45286021 -1.5773681 0.94468451 1.2904492e-38
0.38745931 -1.5689332 0.94434261 8.3876331e-39
0.39484447 -1.5654811 0.94468969 8.3883534e-39
0.40482712 -1.562656 0.94469804 8.572746e-39
0.41505757 -1.5618964 0.94503707 8.7575002e-39
0.42578033 -1.5630206 0.94453514 8.7571359e-39
0.43526506 -1.5659728 0.94538867 1.0047152e-38
0.44202232 -1.5693079 0.94499129 1.1153498e-38
-0.067106418 -1.5263649 0.94495249 1.1779175e-40
0.096463986 -1.5256752 0.94526833 7.7397778e-40
-0.062426407 -1.5138652 0.94558114 1.1779175e-40
0.089987561 -1.5106103 0.94898617 8.6473007e-40
0.091946535 -1.5144123 0.94532907 8.6545174e-40
-0.060416289 -1.5099601 0.94928485 1.1779175e-40
-0.05664292 -1.5035493 0.94430912 1.1779175e-40
0.08574526 -1.503134 0.94545424 8.6509301e-40
-0.052448668 -1.4973164 0.946257 1.1779175e-40
-0.048242077 -1.4919525 0.94496554 1.1779175e-40
0.077913873 -1.4921308 0.94488209 9.5512503e-40
0.081511624 -1.496455 0.94412309 8.6401121e-40
-0.043979824 -1.4873201 0.94488257 1.1779175e-40
-0.037871864 -1.4818524 0.94498163 1.1779175e-40
0.06742584 -1.4825375 0.94533187 1.4124976e-39
0.073479079 -1.4876896 0.94538611 9.5404323e-40
-0.032029912 -1.4774588 0.94548327 1.1779175e-40
-0.02510413 -1.4732995 0.94494218 1.1779175e-40
-0.019065885 -1.4703296 0.94572502 5.726224e-39
0.048921842 -1.4712065 0.94530869 6.2833635e-39
0.054650616 -1.4742643 0.94490349 8.7665162e-39
0.0618443 -1.4786263 0.94493151 4.7218055e-39
-0.013629753 -1.468272 0.94471037 5.3581632e-39
-0.0048441594 -1.465694 0.94480282 3.2434314e-39
0.0050682412 -1.4638346 0.94568968 6.5534609e-39
0.014945971 -1.4637206 0.9457441 3.0146274e-40
0.024824435 -1.4646355 0.94530767 1.1779175e-40
0.034721471 -1.4663098 0.94450909 5.3592436e-39
0.043228082 -1.4687569 0.94490707 3.6154593e-39
0.35954088 -1.6163505 0.95574147 3.8707997e-39
0.36064753 -1.6052071 0.95554161 6.7266642e-39
0.3636688 -1.5960889 0.95453006 6.6333784e-39
0.46435231 -1.5939579 0.95544493 1.1884188e-38
0.36807474 -1.5873448 0.95503092 6.6333784e-39
0.3716321 -1.5824242 0.95552975 6.6333798e-39
0.45793498 -1.5833726 0.95512104 1.1147708e-38
0.46010238 -1.5860255 0.95070142 1.1516129e-38
0.37638751 -1.5772047 0.95519382 6.8181326e-39
0.38295713 -1.571673 0.95463657 7.8340936e-39
0.44576335 -1.5716543 0.95534039 1.0782903e-38
0.45217639 -1.5769527 0.95546645 1.0688173e-38
0.38812479 -1.5685787 0.95571232 8.2961563e-39
0.39482471 -1.5654668 0.95466179 8.3879946e-39
0.40522769 -1.5626446 0.95443195 8.4805504e-39
0.41541404 -1.5618279 0.95479131 8.7575002e-39
0.4245756 -1.56278 0.95437217 8.7567772e-39
0.43396106 -1.5654681 0.9553479 9.7709249e-39
0.44063115 -1.5685616 0.95507145 1.0876551e-38
-0.066731393 -1.5243357 0.9554531 1.1779175e-40
0.096169837 -1.5240294 0.95559186 8.6617341e-40
-0.063391782 -1.5155548 0.9562459 1.1779175e-40
0.08983773 -1.5101585 0.95552987 8.6473147e-40
0.092958264 -1.5163742 0.95587462 8.6509161e-40
-0.060238343 -1.5095736 0.95579576 1.1779175e-40
-0.057141278 -1.5043036 0.95504069 1.1779175e-40
0.086032152 -1.5035899 0.9537909 8.6437134e-40
-0.052544903 -1.497454 0.95502812 1.1779175e-40
-0.048031259 -1.4917361 0.95451695 1.1779175e-40
0.077752046 -1.4920691 0.95436335 9.5512503e-40
0.081905417 -1.4973129 0.95572388 8.6436994e-40
-0.043559983 -1.4870096 0.95513338 1.1779175e-40
-0.037478413 -1.4816687 0.95514816 1.1779175e-40
0.067492485 -1.4827031 0.95556217 9.5296283e-40
0.073329724 -1.4876204 0.95485067 9.5404323e-40
-0.031881902 -1.4776282 0.95479649 1.1779175e-40
-0.024675632 -1.4733896 0.9552142 1.1779175e-40
-0.01895549 -1.4705739 0.95497388 1.1779175e-40
0.048845574 -1.4712445 0.95465976 7.1106004e-39
0.054552108 -1.4742705 0.95480281 2.8822187e-39
0.061730478 -1.4786282 0.9543305 9.5223976e-40
-0.012972908 -1.4681975 0.95546424 8.1168196e-39
-0.0050448561 -1.4657675 0.95473975 6.3697899e-39
0.0051159062 -1.4639062 0.9549942 7.6099895e-40
0.014965705 -1.4638141 0.95503753 1.1779175e-40
0.024816452 -1.4646851 0.95462793 1.1779175e-40
0.034964882 -1.466405 0.95444 5.7273044e-39
0.042878572 -1.468683 0.95523673 9.2242503e-39
0.35989767 -1.6216713 0.96174818 1.4740931e-39
0.36027789 -1.6256415 0.96503794 2.3964011e-39
0.36099911 -1.6050234 0.96499109 6.5426345e-39
0.36490703 -1.5930624 0.96491909 6.5411828e-39
0.46300912 -1.5914352 0.96142679 1.1699797e-38
0.36842102 -1.5865282 0.96514392 6.5408226e-39
0.37203351 -1.5819362 0.96548367 6.448627e-39
0.45758748 -1.5829477 0.96504992 1.0870758e-38
0.46167502 -1.5889298 0.96736842 1.1515406e-38
0.37706745 -1.5764179 0.96461153 6.448627e-39
0.38232756 -1.5721189 0.9655357 6.5408212e-39
0.44777435 -1.5731802 0.96600312 9.5807435e-39
0.45279431 -1.5774258 0.96336997 1.0318306e-38
0.38753596 -1.5688921 0.96462297 6.7255754e-39
0.39570087 -1.5651711 0.96573317 7.556785e-39
0.4050726 -1.5626442 0.96378422 8.572746e-39
0.41486374 -1.5618393 0.96477634 8.7575002e-39
0.42495441 -1.5628998 0.96399575 8.6649403e-39
0.43527541 -1.5660255 0.9652158 8.6616822e-39
0.44273743 -1.5696926 0.96427703 9.0282928e-39
0.099402256 -1.5386246 0.96818209 8.6689368e-40
-0.066393219 -1.5228852 0.96561617 1.1779175e-40
0.095929056 -1.523414 0.96538144 8.6617341e-40
-0.063117445 -1.5149964 0.96597463 1.1779175e-40
0.092724837 -1.5157024 0.96565956 8.6545314e-40
-0.060066685 -1.5092891 0.96223813 1.1779175e-40
-0.058116831 -1.5060542 0.9655813 1.1779175e-40
0.088094272 -1.5069591 0.96485972 8.6473007e-40
-0.052521937 -1.4975529 0.96529311 1.1779175e-40
-0.047824059 -1.4915695 0.96398908 1.1779175e-40
0.07756836 -1.492099 0.96530783 9.5512503e-40
0.082242608 -1.4978492 0.96515906 8.640098e-40
-0.043144114 -1.4867132 0.9653092 1.1779175e-40
-0.037499655 -1.4817638 0.96534681 1.1779175e-40
0.067361981 -1.4826708 0.96493202 9.5260129e-40
0.072961383 -1.4873626 0.96501338 9.536831e-40
-0.031917002 -1.4776709 0.96500283 1.1779175e-40
-0.024244796 -1.4732959 0.96550733 1.1779175e-40
-0.0188423 -1.4706992 0.96422738 1.1779175e-40
0.04876852 -1.4712181 0.96398783 1.0422732e-39
0.05416587 -1.4741547 0.96511239 9.5151949e-40
0.061812393 -1.4787767 0.96449554 9.5187963e-40
-0.013153088 -1.4683927 0.96529198 1.6807902e-39
-0.0044176802 -1.4656209 0.96544832 2.0962724e-40
0.005163196 -1.4639848 0.96424299 1.1779175e-40
0.014985321 -1.463908 0.96427864 1.1779175e-40
0.025208186 -1.4647909 0.96475041 1.1779175e-40
0.034385469 -1.4663188 0.96512544 9.4575035e-40
0.043098398 -1.4687917 0.9651078 2.1446551e-39
0.35986981 -1.611805 0.97568297 6.7277586e-39
0.36139536 -1.6027412 0.9745543 6.6333784e-39
0.36437288 -1.5943222 0.97482234 6.5408226e-39
0.46460262 -1.5944283 0.9780103 1.1515767e-38
0.36817712 -1.5871546 0.9762035 6.4489843e-39
0.37155038 -1.5825227 0.97427958 6.4489857e-39
0.45724371 -1.5825276 0.97492486 1.0778562e-38
0.46034664 -1.5864327 0.97328025 1.1239538e-38
0.37685436 -1.57671 0.9752301 6.448627e-39
0.38299665 -1.5716895 0.97521418 6.5408212e-39
0.44649792 -1.5721712 0.9744752 9.3963536e-39
0.45278805 -1.5774797 0.97544098 1.004172e-38
0.38735884 -1.5689861 0.97342229 6.5408226e-39
0.39458582 -1.5655848 0.97567028 6.540824e-39
0.40473852 -1.5627055 0.97457069 7.5571452e-39
0.41512918 -1.561879 0.97376198 8.6653046e-39
