# .PCD v0.7 - Point Cloud Data file format
VERSION 0.7
FIELDS x y z rgb
SIZE 4 4 4 4
TYPE F F F F
COUNT 1 1 1 1
WIDTH 1018
HEIGHT 1
VIEWPOINT 0 0 0 1 0 0 0
POINTS 1018
DATA ascii
-0.28382143 -1.8472463 0.77469939 7.9230158e-39
-0.27487928 -1.8472463 0.77469939 7.9230158e-39
-0.26593712 -1.8472463 0.77469939 7.9233773e-39
-0.25520656 -1.8472463 0.77469939 8.015573e-39
-0.24447596 -1.8472463 0.77469945 7.9233773e-39
-0.2337454 -1.8472463 0.77469945 7.9233787e-39
-0.22480324 -1.8472463 0.77469945 8.0159345e-39
-0.21586108 -1.8472462 0.77469945 8.0159345e-39
-0.2051305 -1.8472462 0.77469951 8.10777e-39
-0.19439995 -1.8472462 0.77469951 8.1077686e-39
-0.18366937 -1.8472462 0.77469951 8.1077672e-39
-0.1747272 -1.8472462 0.77469951 8.1077686e-39
-0.16578506 -1.8472462 0.77469951 8.1077686e-39
-0.15505446 -1.8472461 0.77469951 8.0152114e-39
-0.1443239 -1.8472461 0.77469951 7.923013e-39
-0.13359334 -1.8472461 0.77469951 7.923013e-39
-0.12465117 -1.8472459 0.77469963 7.923013e-39
-0.11570904 -1.8472458 0.77469963 8.0152086e-39
-0.10497846 -1.8472458 0.77469963 8.1992411e-39
-0.094247885 -1.8472458 0.77469963 8.01521e-39
0.1167867 -1.8472455 0.77469987 7.8311845e-39
0.12394042 -1.8472453 0.77469993 7.8315446e-39
0.13467099 -1.8472453 0.77469993 7.9237417e-39
0.14540155 -1.8472453 0.77469993 7.9237389e-39
0.15613212 -1.8472452 0.77469999 7.9233773e-39
0.16507426 -1.8472452 0.77469999 8.0152128e-39
0.1740164 -1.8472452 0.77469999 8.0155758e-39
0.18474697 -1.8472449 0.77469999 8.0159373e-39
0.19368911 -1.847245 0.77470005 7.9237389e-39
0.24913034 -1.8472447 0.77470016 7.831546e-39
0.25628406 -1.8472447 0.77470016 7.8319076e-39
0.26522619 -1.8472447 0.77470016 7.8319062e-39
0.27416834 -1.8472446 0.77470016 7.831546e-39
0.28489888 -1.8472446 0.77470016 7.831546e-39
0.29562947 -1.8472446 0.77470016 7.9241032e-39
0.30636004 -1.8472446 0.77470016 7.7397105e-39
0.31530213 -1.8472445 0.77470016 7.7393476e-39
0.32424429 -1.8472446 0.77470016 7.7393504e-39
0.33497486 -1.8472446 0.77470022 7.8315474e-39
0.34570539 -1.8472446 0.77470022 7.6475135e-39
0.35464752 -1.8472444 0.77470028 7.6467932e-39
0.36358967 -1.8472444 0.77470034 7.7397105e-39
0.37432018 -1.8472444 0.77470034 7.9241032e-39
0.38505077 -1.8472443 0.77470034 7.8319062e-39
0.39578131 -1.8472443 0.77470034 7.831546e-39
0.40472347 -1.8472443 0.77470034 7.9237417e-39
0.53885537 -1.8472437 0.77470064 8.1081343e-39
0.54600906 -1.8472437 0.77470064 8.0162974e-39
0.55495119 -1.8472437 0.77470064 8.0159387e-39
0.56389332 -1.8472437 0.77470064 7.9233815e-39
0.57462388 -1.8472437 0.77470064 7.9230158e-39
0.58535439 -1.8472437 0.77470064 7.9230144e-39
0.59608495 -1.8472437 0.77470064 8.0148499e-39
0.60502708 -1.8472435 0.7747007 8.1070455e-39
0.61396927 -1.8472434 0.7747007 8.1074084e-39
0.62469977 -1.8472434 0.77470082 8.0155715e-39
0.63543028 -1.8472433 0.77470082 7.9226514e-39
0.6461609 -1.8472434 0.77470082 7.9230144e-39
0.65510297 -1.8472433 0.77470076 7.9237403e-39
0.6640451 -1.8472433 0.77470082 8.0155744e-39
0.6747756 -1.8472433 0.77470082 8.0152128e-39
0.68550617 -1.8472432 0.77470088 8.0159345e-39
0.69623679 -1.8472432 0.77470088 8.1081329e-39
0.70517886 -1.8472432 0.77470088 8.1077714e-39
0.71412092 -1.847243 0.77470088 8.1077686e-39
0.72485143 -1.847243 0.77470094 8.10777e-39
0.73558205 -1.847243 0.77470094 8.1077672e-39
0.74631256 -1.847243 0.77470094 8.1077672e-39
0.75525469 -1.8472428 0.774701 8.1077686e-39
0.76419681 -1.8472428 0.77470094 8.107407e-39
0.77492732 -1.8472428 0.77470106 7.9230144e-39
0.78565788 -1.8472428 0.77470106 7.9230144e-39
0.79638839 -1.8472427 0.77470112 7.9230144e-39
0.80533051 -1.8472427 0.77470112 8.01521e-39
0.81427264 -1.8472427 0.77470112 8.1074056e-39
0.82500315 -1.8472427 0.77470112 8.1077672e-39
0.83573371 -1.8472427 0.77470112 8.0152128e-39
0.8446759 -1.8472427 0.77470112 7.8308202e-39
0.85361791 -1.8472427 0.77470118 7.8311803e-39
0.86434847 -1.8472427 0.77470118 8.0152128e-39
0.8750791 -1.8472427 0.77470118 8.0152142e-39
0.8858096 -1.8472425 0.7747013 7.9230186e-39
0.89475167 -1.8472425 0.77470124 7.9230158e-39
0.90369385 -1.8472425 0.7747013 7.8311789e-39
0.91084743 -1.8472424 0.7747013 7.9230158e-39
-0.57473755 -1.8355707 0.77469897 7.9226528e-39
-0.56491143 -1.8347411 0.77469903 7.9233773e-39
-0.55509585 -1.8339115 0.77469903 8.015573e-39
-0.54535085 -1.8347411 0.77469903 8.015573e-39
-0.53467971 -1.8347411 0.77469903 8.0159345e-39
-0.52492028 -1.8355707 0.77469909 8.016296e-39
-0.51511258 -1.8347411 0.77469903 8.1077686e-39
-0.50444144 -1.8347411 0.77469915 8.1996013e-39
-0.49464822 -1.8339115 0.77469903 8.1996027e-39
-0.48488083 -1.834741 0.77469915 8.1074084e-39
-0.47510305 -1.8355706 0.77469915 8.1074084e-39
-0.46531376 -1.834741 0.77469915 8.1996027e-39
-0.45464262 -1.834741 0.77469915 8.1074056e-39
-0.44486776 -1.8339113 0.77469921 8.0152086e-39
-0.43508199 -1.834741 0.77469921 7.9230144e-39
-0.42441082 -1.834741 0.77469921 7.9230158e-39
-0.41461068 -1.8355706 0.77469921 8.01521e-39
-0.40484372 -1.834741 0.77469921 8.1074042e-39
-0.3950873 -1.8339112 0.77469921 8.1992425e-39
-0.3852832 -1.8347408 0.77469921 8.1074056e-39
-0.37461197 -1.8347408 0.77469921 7.8308188e-39
-0.36479339 -1.8355703 0.77469921 7.9226557e-39
-0.35504487 -1.8347408 0.77469921 8.0152114e-39
-0.34530681 -1.8339112 0.77469921 8.01521e-39
-0.33548436 -1.8347406 0.77469927 7.9230158e-39
-0.32481316 -1.8347406 0.77469927 7.9226543e-39
-0.31497622 -1.8355701 0.77469927 7.8308188e-39
-0.30524606 -1.8347406 0.77469927 7.9230144e-39
-0.29552639 -1.8339109 0.77469933 8.0152114e-39
-0.28568551 -1.8347405 0.77469927 7.9230158e-39
-0.27501431 -1.8347405 0.77469927 7.9233745e-39
-0.26434314 -1.8347405 0.77469927 8.0152128e-39
-0.25448385 -1.8355701 0.77469939 8.0152128e-39
-0.24655457 -1.8347404 0.77469933 7.9233773e-39
-0.23636283 -1.8388885 0.77469939 7.9233787e-39
-0.22567196 -1.8388885 0.77469939 8.0155758e-39
-0.21498108 -1.8388885 0.77469939 8.0162946e-39
-0.20429021 -1.8388885 0.77469939 8.1081301e-39
-0.19359933 -1.8388885 0.77469945 8.1077686e-39
-0.18469027 -1.8388884 0.77469945 8.1077672e-39
-0.17541666 -1.8347403 0.77469945 8.1077672e-39
-0.16474551 -1.8347402 0.77469945 8.107407e-39
-0.15407433 -1.8347402 0.77469945 8.0152114e-39
-0.14417434 -1.8355697 0.77469945 8.0148499e-39
-0.13551787 -1.8339106 0.77469951 8.0148513e-39
-0.12561786 -1.8347402 0.77469951 8.0148499e-39
-0.11494669 -1.8347402 0.77469951 8.0152114e-39
-0.10427552 -1.8347402 0.77469951 8.1992425e-39
-0.094357148 -1.8355697 0.77469951 8.01521e-39
-0.089840405 -1.830592 0.77469951 8.01521e-39
0.11804051 -1.8347396 0.77469981 7.9237403e-39
0.12515461 -1.8347396 0.77469987 7.9237431e-39
0.13404725 -1.8347396 0.77469987 7.9241004e-39
0.14471841 -1.8347393 0.77469993 8.0155758e-39
0.15538959 -1.8347393 0.77469987 8.0152128e-39
0.16606073 -1.8347393 0.77469993 8.015573e-39
0.17596205 -1.8339096 0.77469993 8.0159373e-39
0.18461588 -1.835569 0.77469993 8.0159359e-39
0.19374073 -1.8339096 0.77469999 7.9233801e-39
0.25498709 -1.8347391 0.77470011 7.831546e-39
0.26565826 -1.8347391 0.77470011 7.831546e-39
0.27552277 -1.8339094 0.77470016 7.8311845e-39
0.28425017 -1.8355687 0.77470016 7.8315432e-39
0.29411465 -1.8347391 0.77470016 7.8319062e-39
0.30478582 -1.8347389 0.77470016 7.739349e-39
0.31545699 -1.8347387 0.77470022 7.6467918e-39
0.32530314 -1.8339093 0.77470022 7.7389889e-39
0.33501747 -1.8347387 0.77470022 7.8311845e-39
0.34474236 -1.8355682 0.77470028 7.6471548e-39
0.35458454 -1.8347386 0.77470022 7.6471534e-39
0.36525568 -1.8347386 0.77470022 7.6467932e-39
0.37508342 -1.8339088 0.77470028 7.6471548e-39
0.38481617 -1.8347386 0.77470034 7.7397105e-39
0.39455947 -1.8355681 0.77470028 7.831546e-39
0.40260476 -1.8347385 0.77470028 7.831546e-39
0.53686124 -1.8333553 0.77470046 7.9241032e-39
0.54488349 -1.8347379 0.77470058 7.9241032e-39
0.55555457 -1.8347379 0.77470058 7.831546e-39
0.5653609 -1.8355675 0.77470064 7.8311845e-39
0.57512164 -1.8347378 0.77470064 7.9233759e-39
0.58487189 -1.8339081 0.77470064 8.0152114e-39
0.59468216 -1.8347377 0.77470064 8.1074056e-39
0.6053533 -1.8347377 0.77470064 8.1074056e-39
0.61517799 -1.8355672 0.7747007 8.1077686e-39
0.62492031 -1.8347377 0.7747007 8.0155701e-39
0.6346522 -1.8339081 0.77470076 7.830816e-39
0.64448076 -1.8347374 0.7747007 7.9226528e-39
0.6551519 -1.8347374 0.7747007 7.9233773e-39
0.6658231 -1.8347373 0.7747007 8.015573e-39
0.67567015 -1.8355669 0.77470082 8.015573e-39
0.68443245 -1.8339077 0.77470082 8.0159345e-39
0.69427943 -1.8347373 0.77470082 8.0159373e-39
0.70495057 -1.8347373 0.77470088 8.1077686e-39
0.71562177 -1.8347373 0.77470088 8.1995999e-39
0.72548711 -1.8355669 0.77470088 8.1077672e-39
0.7342127 -1.8339077 0.77470088 8.1074084e-39
0.7440781 -1.8347372 0.77470088 8.1074084e-39
0.7547493 -1.8347372 0.77470088 8.1996027e-39
0.76542044 -1.8347372 0.77470094 8.1074056e-39
0.7753042 -1.8355668 0.774701 8.0148499e-39
0.78498739 -1.8347372 0.77470106 7.9230158e-39
0.79466015 -1.8339075 0.774701 7.9230158e-39
0.80454785 -1.8347369 0.77470106 8.01521e-39
0.81521893 -1.8347368 0.77470106 8.1992397e-39
0.82589012 -1.8347368 0.77470112 8.1996013e-39
0.83579624 -1.8355665 0.77470112 8.0152114e-39
0.84444034 -1.8339071 0.77470112 7.8308188e-39
0.85434645 -1.8347367 0.77470112 7.9226543e-39
0.86501765 -1.8347367 0.77470112 8.01521e-39
0.87568879 -1.8347365 0.77470118 8.01521e-39
0.88561326 -1.8355662 0.77470124 7.9230158e-39
0.89422053 -1.8339069 0.77470124 7.9226543e-39
0.90414506 -1.8347365 0.77470118 7.8308174e-39
0.91125917 -1.8347366 0.77470124 7.9230144e-39
-0.57229197 -1.8223581 0.77469897 8.0152086e-39
-0.56521702 -1.8223581 0.77469897 8.1992411e-39
-0.55637336 -1.822358 0.77469897 8.1996013e-39
-0.54576105 -1.822358 0.77469897 8.1996027e-39
-0.53514868 -1.822358 0.77469897 8.1081273e-39
-0.52453631 -1.822358 0.77469897 8.0159345e-39
-0.51392394 -1.8223578 0.77469903 8.1992425e-39
-0.50508034 -1.8223579 0.77469903 8.3832709e-39
-0.49623665 -1.8223578 0.77469903 8.1995999e-39
-0.48562431 -1.8223578 0.77469903 8.0155715e-39
-0.47501197 -1.8223578 0.77469903 8.1077686e-39
-0.46439958 -1.8223578 0.77469903 8.1999642e-39
-0.45378724 -1.8223578 0.77469903 8.1992425e-39
-0.44494361 -1.8223578 0.77469909 8.1070441e-39
-0.43610001 -1.8223577 0.77469903 8.01521e-39
-0.42548761 -1.8223577 0.77469915 8.0152114e-39
-0.41487527 -1.8223577 0.77469915 8.0152086e-39
-0.40426287 -1.8223577 0.77469915 8.1070455e-39
-0.39365053 -1.8223577 0.77469915 8.1996013e-39
-0.3848069 -1.8223577 0.77469921 8.107407e-39
-0.37596324 -1.8223575 0.77469921 7.9230144e-39
-0.36535087 -1.8223575 0.77469921 7.9230144e-39
-0.35473856 -1.8223575 0.77469921 8.0152114e-39
-0.34412619 -1.8223575 0.77469927 8.1070455e-39
-0.33528253 -1.8223574 0.77469927 8.0148485e-39
-0.32643893 -1.8223575 0.77469927 8.0148485e-39
-0.31582657 -1.8223575 0.77469927 8.0148485e-39
-0.3052142 -1.8223575 0.77469927 8.0152086e-39
-0.29460186 -1.8223573 0.77469939 8.01521e-39
-0.28398949 -1.8223573 0.77469939 8.01521e-39
-0.27514586 -1.8223573 0.77469933 8.01521e-39
-0.26807097 -1.8223573 0.77469933 8.0152114e-39
-0.16017869 -1.8223572 0.77469945 8.1074056e-39
-0.15487251 -1.8223571 0.77469951 8.0152114e-39
-0.14602888 -1.8223571 0.77469951 7.9233745e-39
-0.13541652 -1.8223571 0.77469951 7.9230144e-39
-0.12480418 -1.8223571 0.77469951 7.923013e-39
-0.11419182 -1.8223568 0.77469945 8.0152114e-39
-0.10357948 -1.8223568 0.77469945 8.1077672e-39
-0.094735846 -1.8223569 0.77469945 8.1074056e-39
-0.089429669 -1.8223569 0.77469945 8.0152114e-39
0.11751111 -1.8223562 0.77469981 7.9233773e-39
0.12635472 -1.8223562 0.77469987 7.9237389e-39
0.13519835 -1.8223562 0.77469981 8.0155744e-39
0.14404197 -1.8223562 0.77469987 8.0152142e-39
0.15465431 -1.8223561 0.77469987 8.015573e-39
0.16526665 -1.8223561 0.77469987 8.0159345e-39
0.175879 -1.8223559 0.77469993 8.0159345e-39
0.18472262 -1.822356 0.77469993 8.0155744e-39
0.19356625 -1.8223559 0.77469993 7.9237389e-39
0.25370285 -1.8223557 0.77469999 7.8311845e-39
0.26431516 -1.8223556 0.77469999 7.8311845e-39
0.2749275 -1.8223556 0.77469999 7.8311845e-39
0.28553984 -1.8223556 0.77470011 7.8315446e-39
0.29615214 -1.8223556 0.77470011 7.9237431e-39
0.30499578 -1.8223555 0.77470011 7.7393504e-39
0.31383941 -1.8223556 0.77470011 7.647152e-39
0.32445171 -1.8223554 0.77470016 7.7393504e-39
0.33506408 -1.8223554 0.77470016 7.8315474e-39
0.34567642 -1.8223554 0.77470016 7.9237403e-39
0.3562887 -1.8223554 0.77470022 7.7397091e-39
0.36513233 -1.8223554 0.77470022 7.5549591e-39
0.37397596 -1.8223554 0.77470022 7.5549591e-39
0.38458827 -1.8223553 0.77470034 7.7397119e-39
0.39520064 -1.8223553 0.77470034 7.8319076e-39
0.4022755 -1.8223552 0.77470034 7.8315446e-39
0.53492963 -1.8223547 0.77470052 7.9237403e-39
0.54377323 -1.8223547 0.77470046 7.9237417e-39
0.55438554 -1.8223547 0.77470046 7.8315446e-39
0.56499785 -1.8223547 0.77470058 7.8311831e-39
0.57561016 -1.8223547 0.77470058 7.9233773e-39
0.58622247 -1.8223547 0.77470064 8.01521e-39
0.59506613 -1.8223546 0.77470064 8.1070441e-39
0.60390973 -1.8223547 0.77470064 8.1070441e-39
0.61452204 -1.8223544 0.77470064 8.1070441e-39
0.62513441 -1.8223544 0.7747007 8.0148485e-39
0.63574672 -1.8223543 0.7747007 7.9226514e-39
0.64635897 -1.8223543 0.7747007 8.0152086e-39
0.65520263 -1.8223543 0.7747007 8.1992425e-39
0.66404623 -1.8223543 0.7747007 8.1996013e-39
0.67465854 -1.8223543 0.77470082 8.1996027e-39
0.68527085 -1.8223542 0.77470082 8.1077686e-39
0.6958831 -1.8223542 0.77470082 8.0155758e-39
0.70472676 -1.8223541 0.77470082 8.1077658e-39
0.71357036 -1.822354 0.77470082 8.291434e-39
0.72418267 -1.822354 0.77470082 8.1992411e-39
0.73479503 -1.822354 0.77470088 8.0155715e-39
0.74540734 -1.822354 0.77470088 8.1077686e-39
0.75601959 -1.8223538 0.77470094 8.1996055e-39
0.76486325 -1.8223538 0.77470094 8.1992425e-39
0.77370685 -1.8223538 0.77470094 8.1070441e-39
0.78431916 -1.8223538 0.77470094 8.01521e-39
0.79493141 -1.8223537 0.77470094 8.01521e-39
0.80554372 -1.8223537 0.77470094 8.0152086e-39
0.81615609 -1.8223537 0.77470094 8.1074042e-39
0.82499969 -1.8223537 0.774701 8.1996013e-39
0.83384323 -1.8223537 0.77470094 8.1992425e-39
0.84445554 -1.8223537 0.77470106 7.9226557e-39
0.85506791 -1.8223537 0.77470106 7.9230144e-39
0.86568022 -1.8223535 0.77470112 8.0152114e-39
0.87629253 -1.8223537 0.77470112 8.0152086e-39
0.88513613 -1.8223535 0.77470112 8.0148485e-39
0.89397973 -1.8223535 0.77470112 8.0148485e-39
0.90459204 -1.8223534 0.77470112 8.0148485e-39
0.91166687 -1.8223534 0.77470118 8.0152086e-39
-0.57187968 -1.8141832 0.77469891 8.1070427e-39
-0.5648306 -1.8141832 0.77469891 8.1070427e-39
-0.55425709 -1.8141831 0.77469891 8.1070455e-39
-0.54368353 -1.8141831 0.77469891 8.1996041e-39
-0.53487229 -1.8141831 0.77469891 8.1077686e-39
-0.52606106 -1.8141831 0.77469891 8.0152114e-39
-0.51548743 -1.8141829 0.77469897 8.1074056e-39
-0.50491399 -1.8141829 0.77469897 8.1999628e-39
-0.49434042 -1.8141829 0.77469897 8.1077686e-39
-0.48376688 -1.8141829 0.77469897 8.0155715e-39
-0.47495559 -1.8141828 0.77469903 8.1077672e-39
-0.46614432 -1.8141828 0.77469903 8.1999628e-39
-0.45557079 -1.8141828 0.77469903 8.2914368e-39
-0.44499731 -1.8141828 0.77469903 8.1992383e-39
-0.43442377 -1.8141828 0.77469903 8.1074028e-39
-0.42385021 -1.8141826 0.77469903 8.0152086e-39
-0.41503894 -1.8141826 0.77469909 7.9230144e-39
-0.40622768 -1.8141826 0.77469903 8.0148499e-39
-0.39565411 -1.8141826 0.77469903 8.1992425e-39
-0.38508058 -1.8141826 0.77469915 8.1992425e-39
-0.3745071 -1.8141826 0.77469915 7.9230144e-39
-0.36393356 -1.8141826 0.77469915 8.0148499e-39
-0.3551223 -1.8141825 0.77469915 8.0148513e-39
-0.346311 -1.8141826 0.77469915 8.0148485e-39
-0.33573747 -1.8141824 0.77469921 8.1063224e-39
-0.32516396 -1.8141824 0.77469921 8.0144869e-39
-0.31459042 -1.8141824 0.77469921 8.0148471e-39
-0.30401692 -1.8141824 0.77469921 8.1070469e-39
-0.29520562 -1.8141824 0.77469927 8.107407e-39
-0.28639436 -1.8141824 0.77469927 8.1992425e-39
-0.27934533 -1.8141824 0.77469927 8.1992425e-39
-0.14541405 -1.8141819 0.77469939 7.9233745e-39
-0.13484053 -1.8141819 0.77469945 7.9230144e-39
-0.124267 -1.8141819 0.77469945 7.8308202e-39
-0.11369348 -1.8141819 0.77469945 7.9233787e-39
-0.10488222 -1.8141819 0.77469945 8.1077714e-39
-0.096070945 -1.8141819 0.77469945 8.0155744e-39
-0.087259695 -1.8141819 0.77469945 7.9233759e-39
0.11716163 -1.8141813 0.77469981 7.9237403e-39
0.12597288 -1.8141813 0.77469987 7.9237417e-39
0.13478415 -1.8141812 0.77469987 7.8311845e-39
0.14359541 -1.8141812 0.77469987 7.7386259e-39
0.15416892 -1.8141812 0.77469987 7.9233787e-39
0.16474243 -1.8141812 0.77469993 8.0162974e-39
0.17531593 -1.814181 0.77469993 8.0159373e-39
0.18588944 -1.814181 0.77469993 8.0159359e-39
0.19646294 -1.814181 0.77469993 7.831546e-39
0.24933051 -1.8141809 0.77469999 7.7397091e-39
0.25637951 -1.8141807 0.77469999 7.7393504e-39
0.26519075 -1.8141807 0.77470005 7.7397091e-39
0.27400202 -1.8141807 0.77469999 7.8311845e-39
0.28457552 -1.8141807 0.77469999 7.8319062e-39
0.29514903 -1.8141807 0.77470011 7.9244647e-39
0.30572253 -1.8141807 0.77470011 7.831909e-39
0.31629601 -1.8141807 0.77470016 7.831546e-39
0.32510728 -1.8141806 0.77470016 7.831546e-39
0.33391857 -1.8141807 0.77470016 7.9237417e-39
0.34449205 -1.8141805 0.77470016 7.9241018e-39
0.35506555 -1.8141805 0.77470022 7.831909e-39
0.36563906 -1.8141805 0.77470022 7.739349e-39
0.37621251 -1.8141804 0.77470022 7.647152e-39
0.3850238 -1.8141804 0.77470022 7.831546e-39
0.39383507 -1.8141804 0.77470022 7.8315474e-39
0.53481507 -1.8141799 0.77470046 8.1077728e-39
0.54538852 -1.8141798 0.77470046 8.016296e-39
0.55596203 -1.8141798 0.77470046 8.0155744e-39
0.56477326 -1.8141798 0.77470052 8.0152114e-39
0.5735845 -1.8141798 0.77470058 8.01521e-39
0.584158 -1.8141798 0.77470058 8.0152086e-39
0.59473151 -1.8141798 0.77470058 8.0152072e-39
0.60530496 -1.8141795 0.77470064 8.1070427e-39
0.61587852 -1.8141795 0.77470064 8.1070427e-39
0.62645197 -1.8141795 0.77470064 8.0148471e-39
0.6352632 -1.8141794 0.77470064 8.0148457e-39
0.64407444 -1.8141794 0.7747007 8.1070427e-39
0.65464789 -1.8141794 0.7747007 8.1070427e-39
0.66522145 -1.8141794 0.7747007 8.1070455e-39
0.6757949 -1.8141793 0.77470082 8.1996041e-39
0.68636841 -1.8141793 0.77470082 8.1074084e-39
0.69517964 -1.8141792 0.77470076 8.01521e-39
0.70399088 -1.8141791 0.77470082 8.1074056e-39
0.71456432 -1.8141791 0.77470088 8.1999628e-39
0.72513789 -1.8141791 0.77470082 8.1077686e-39
0.73571134 -1.8141791 0.77470088 8.0155715e-39
0.74628478 -1.8141791 0.77470088 8.1077686e-39
0.75509608 -1.8141789 0.77470094 8.1999628e-39
0.76390725 -1.8141789 0.77470094 8.2914368e-39
0.77448082 -1.8141789 0.77470094 8.1992383e-39
0.78505427 -1.8141789 0.77470094 8.1074042e-39
0.79562777 -1.8141789 0.77470094 8.0152086e-39
0.80620122 -1.8141789 0.77470094 7.9230144e-39
0.81501245 -1.8141788 0.774701 8.0152086e-39
0.82382369 -1.8141788 0.77470094 8.1992425e-39
0.83439726 -1.8141788 0.77470094 8.1992425e-39
0.84497064 -1.8141788 0.77470106 7.9230144e-39
0.85554409 -1.8141788 0.77470106 8.0148499e-39
0.86611766 -1.8141788 0.77470106 8.0148499e-39
0.87492883 -1.8141785 0.77470112 8.0148485e-39
0.88374013 -1.8141785 0.77470112 8.1063224e-39
0.89431357 -1.8141785 0.77470112 8.0144869e-39
0.90488702 -1.8141785 0.77470112 8.0148485e-39
0.91193604 -1.8141783 0.77470118 8.1070455e-39
-0.56620288 -1.8060678 0.77469891 8.1070413e-39
-0.55566788 -1.8060678 0.77469891 8.1070441e-39
-0.54513288 -1.8060678 0.77469891 8.1996013e-39
-0.53459787 -1.8060676 0.77469897 8.1074056e-39
-0.52406293 -1.8060676 0.77469897 8.0152086e-39
-0.51352793 -1.8060676 0.77469897 8.1077658e-39
-0.50474882 -1.8060676 0.77469897 8.2917983e-39
-0.49596965 -1.8060676 0.77469897 8.1996027e-39
-0.48543465 -1.8060676 0.77469897 8.0152114e-39
-0.47489968 -1.8060676 0.77469897 8.1077686e-39
-0.46436468 -1.8060676 0.77469897 8.1999656e-39
-0.45382968 -1.8060675 0.77469897 8.1996013e-39
-0.44505054 -1.8060675 0.77469903 8.1988782e-39
-0.43627143 -1.8060675 0.77469903 8.1070455e-39
-0.42573643 -1.8060675 0.77469903 8.0152114e-39
-0.41520146 -1.8060675 0.77469903 7.923013e-39
-0.40466651 -1.8060675 0.77469903 8.0148499e-39
-0.39413151 -1.8060673 0.77469903 8.1992397e-39
-0.38359651 -1.8060673 0.77469903 8.198881e-39
-0.37481737 -1.8060673 0.77469909 8.0152086e-39
-0.3660382 -1.8060673 0.77469915 8.01521e-39
-0.3555032 -1.8060671 0.77469915 8.0148513e-39
-0.34496823 -1.8060671 0.77469915 8.0148485e-39
-0.33443323 -1.8060671 0.77469915 8.1066826e-39
-0.32389832 -1.8060671 0.77469915 8.1070413e-39
-0.31511915 -1.8060672 0.77469921 8.1070427e-39
-0.30633998 -1.8060671 0.77469921 8.1074042e-39
-0.29580501 -1.8060671 0.77469921 8.1074056e-39
-0.2887817 -1.8060671 0.77469921 8.1992411e-39
-0.13426873 -1.8060669 0.77469939 7.9226543e-39
-0.12373376 -1.8060669 0.77469945 7.9226557e-39
-0.11495461 -1.8060668 0.77469945 7.9233759e-39
-0.10617547 -1.8060669 0.77469945 8.015573e-39
-0.095640503 -1.8060666 0.77469945 7.9233759e-39
-0.086861357 -1.8060666 0.77469951 7.923013e-39
0.1168147 -1.806066 0.77469975 7.9237417e-39
0.12559383 -1.806066 0.77469975 7.9237431e-39
0.1361288 -1.8060659 0.77469975 7.8311831e-39
0.14490794 -1.8060659 0.77469981 7.7389861e-39
0.15368706 -1.8060659 0.77469987 7.9237375e-39
0.16422202 -1.8060659 0.77469987 8.0162974e-39
0.174757 -1.8060659 0.77469987 8.0162974e-39
0.18529195 -1.8060659 0.77469987 8.0162974e-39
0.1958269 -1.8060659 0.77469987 7.9241032e-39
0.2485017 -1.8060656 0.77469999 7.9237403e-39
0.25552502 -1.8060656 0.77469999 7.9233815e-39
0.26605996 -1.8060656 0.77469999 7.8315446e-39
0.2748391 -1.8060654 0.77470005 7.8315432e-39
0.28361824 -1.8060654 0.77469999 7.8315474e-39
0.29415321 -1.8060654 0.77469999 7.9237431e-39
0.30468816 -1.8060652 0.77469999 7.7397105e-39
0.3152231 -1.8060652 0.77469999 7.5553207e-39
0.32575807 -1.8060652 0.77470011 7.7397119e-39
0.33629301 -1.8060652 0.77470011 7.831909e-39
0.34507215 -1.8060652 0.77470011 7.8319076e-39
0.35385129 -1.8060652 0.77470011 7.8319062e-39
0.36438623 -1.8060651 0.77470016 7.831546e-39
0.37492117 -1.8060651 0.77470016 7.7393504e-39
0.38545612 -1.8060651 0.77470016 7.7393504e-39
0.39423525 -1.806065 0.77470022 7.8315474e-39
0.52767795 -1.8060645 0.77470046 8.1996055e-39
0.53645706 -1.8060642 0.77470046 8.10777e-39
0.54523623 -1.8060644 0.77470052 8.1074098e-39
0.55401534 -1.8060642 0.77470058 7.9233745e-39
0.56455022 -1.8060642 0.77470058 7.923013e-39
0.57508522 -1.8060642 0.77470058 8.0148499e-39
0.58562016 -1.8060642 0.77470058 8.0148485e-39
0.59615511 -1.8060641 0.77470064 8.0148471e-39
0.60493422 -1.8060641 0.77470064 8.1066826e-39
0.61371332 -1.8060641 0.77470064 8.1070427e-39
0.62424827 -1.806064 0.77470064 8.0148471e-39
0.63478321 -1.806064 0.77470064 8.0144855e-39
0.64531815 -1.806064 0.77470064 8.0148471e-39
0.65585309 -1.806064 0.7747007 8.1070413e-39
0.66638803 -1.806064 0.7747007 8.1074042e-39
0.6751672 -1.806064 0.7747007 8.1996013e-39
0.68394631 -1.806064 0.77470082 8.1074056e-39
0.69448119 -1.806064 0.77470082 8.0152086e-39
0.70501614 -1.806064 0.77470082 8.1074056e-39
0.71555114 -1.8060638 0.77470082 8.2917983e-39
0.72608596 -1.8060638 0.77470082 8.1077672e-39
0.73486519 -1.8060637 0.77470088 8.0152128e-39
0.7436443 -1.8060638 0.77470082 8.1077686e-39
0.75417924 -1.8060637 0.77470088 8.1999656e-39
0.76471406 -1.8060637 0.77470088 8.1996013e-39
0.77524906 -1.8060637 0.77470088 8.1070427e-39
0.78578401 -1.8060635 0.77470094 8.1074056e-39
0.79631895 -1.8060635 0.77470094 8.01521e-39
0.80509806 -1.8060634 0.774701 7.923013e-39
0.81387717 -1.8060633 0.77470094 8.0148499e-39
0.82441211 -1.8060633 0.77470094 8.198881e-39
0.83494693 -1.8060633 0.77470094 8.198881e-39
0.84548205 -1.8060633 0.77470094 8.0152086e-39
0.85601693 -1.8060633 0.77470094 8.01521e-39
0.86479604 -1.8060632 0.774701 8.01521e-39
0.87357503 -1.8060632 0.77470106 8.0148499e-39
0.88411003 -1.8060632 0.77470112 8.1066826e-39
0.89464498 -1.8060632 0.77470112 8.1070413e-39
0.90517992 -1.8060632 0.77470112 8.1070441e-39
0.91220319 -1.8060632 0.77470112 8.1074042e-39
-0.56353593 -1.7960119 0.77469885 8.1988768e-39
-0.55427104 -1.7940124 0.77469879 8.1992397e-39
-0.5446372 -1.7932125 0.77469885 8.1999642e-39
-0.53506505 -1.7940125 0.77469879 8.1077672e-39
-0.52458733 -1.7940124 0.77469879 8.1070427e-39
-0.51500124 -1.794812 0.77469891 8.1992397e-39
-0.50537503 -1.7940122 0.77469891 8.2917955e-39
-0.49489734 -1.7940124 0.77469891 8.1992411e-39
-0.48441958 -1.7940124 0.77469891 8.1070441e-39
-0.47481108 -1.7932125 0.77469891 8.1996013e-39
-0.46521363 -1.7940124 0.77469897 8.2917997e-39
-0.45473588 -1.7940121 0.77469897 8.1074056e-39
-0.44512448 -1.794812 0.77469897 8.1070441e-39
-0.4355236 -1.7940121 0.77469903 8.107407e-39
-0.42504582 -1.7940121 0.77469897 8.107407e-39
-0.4145681 -1.7940121 0.77469903 8.01521e-39
-0.40498495 -1.7932122 0.77469903 8.01521e-39
-0.39536214 -1.7940121 0.77469903 8.1070455e-39
-0.38488445 -1.794012 0.77469903 8.1070441e-39
-0.37440673 -1.7940117 0.77469915 7.9226543e-39
-0.36476618 -1.7948116 0.77469909 7.923013e-39
-0.35519442 -1.7940117 0.77469915 8.01521e-39
-0.34471667 -1.7940117 0.77469915 8.0148499e-39
-0.33515882 -1.7932122 0.77469909 8.0148471e-39
-0.32551071 -1.794012 0.77469915 8.1066812e-39
-0.31503299 -1.7940117 0.77469915 8.1066812e-39
-0.30455527 -1.7940116 0.77469915 8.1988796e-39
-0.29640007 -1.7980107 0.77469915 8.1992411e-39
-0.13195163 -1.7980103 0.77469933 7.9222941e-39
-0.1246879 -1.7940114 0.77469933 7.9226514e-39
-0.11595646 -1.7940115 0.77469927 8.0148485e-39
-0.10547876 -1.7940112 0.77469939 8.1070469e-39
-0.095001049 -1.7940111 0.77469939 8.01521e-39
-0.086269632 -1.7940112 0.77469939 7.923013e-39
0.11629932 -1.7940106 0.77469969 7.9237417e-39
0.12503074 -1.7940106 0.77469969 7.9237403e-39
0.13550843 -1.7940105 0.77469969 7.9233773e-39
0.14598614 -1.7940106 0.77469975 7.9230172e-39
0.1557153 -1.7932107 0.77469981 8.015573e-39
0.1641975 -1.7948103 0.77469981 8.0159345e-39
0.17392667 -1.7940105 0.77469987 8.0155744e-39
0.18440437 -1.7940105 0.77469987 7.9237389e-39
0.19488208 -1.7940105 0.77469987 7.9241018e-39
0.2015411 -1.7900113 0.77469987 7.9244633e-39
0.24727055 -1.7940102 0.77469993 7.9244661e-39
0.25425565 -1.79401 0.77469993 8.0163016e-39
0.26473334 -1.79401 0.77469999 7.9237445e-39
0.27521107 -1.79401 0.77469999 7.8311845e-39
0.28568876 -1.7940098 0.77469999 7.831546e-39
0.29536724 -1.7932103 0.77470005 7.8319076e-39
0.30489469 -1.79401 0.77470011 7.7397119e-39
0.31443223 -1.7948097 0.77470005 7.7393518e-39
0.32410696 -1.7940098 0.77470011 7.8319076e-39
0.33458468 -1.7940098 0.77470011 7.9237431e-39
0.34506235 -1.7940097 0.77470016 7.8319076e-39
0.35554004 -1.7940098 0.77470016 7.8319076e-39
0.36519319 -1.79321 0.77470016 7.8319062e-39
0.37474594 -1.7940098 0.77470016 7.831546e-39
0.38522363 -1.7940097 0.77470016 7.7393504e-39
0.39301673 -1.7953428 0.77470016 7.7393518e-39
0.52579278 -1.7932093 0.77470046 8.107407e-39
0.53540379 -1.7940092 0.7747004 8.0152114e-39
0.54502499 -1.794809 0.77470046 7.9230158e-39
0.55461609 -1.7940091 0.77470046 7.9230144e-39
0.56509376 -1.7940091 0.77470058 8.0148499e-39
0.57467091 -1.7932093 0.77470052 8.1070427e-39
0.58429962 -1.7940089 0.77470058 8.1988782e-39
0.59477735 -1.7940089 0.77470058 8.1988782e-39
0.60525507 -1.7940089 0.77470058 8.1070427e-39
0.61573273 -1.7940089 0.77470058 8.0148457e-39
0.62538296 -1.7948086 0.77470058 8.0148457e-39
0.63494492 -1.7940089 0.77470064 8.1070413e-39
0.6444968 -1.7932088 0.77470064 8.1992369e-39
0.65415084 -1.7940087 0.77470064 8.1988768e-39
0.66462857 -1.7940087 0.77470064 8.1992397e-39
0.67510623 -1.7940086 0.77470064 8.1999642e-39
0.68558389 -1.7940086 0.7747007 8.1077658e-39
0.69525951 -1.7948084 0.7747007 8.1070427e-39
0.70479614 -1.7940086 0.7747007 8.1992397e-39
0.71432269 -1.7932087 0.77470076 8.2917955e-39
0.72400206 -1.7940084 0.7747007 8.1992411e-39
0.73447967 -1.7940084 0.7747007 8.1070441e-39
0.74495739 -1.7940083 0.77470082 8.1996027e-39
0.75543505 -1.7940083 0.77470082 8.1999628e-39
0.76591271 -1.7940081 0.77470082 8.1074056e-39
0.77561742 -1.794808 0.77470082 8.1070441e-39
0.78414851 -1.7932085 0.77470082 8.107407e-39
0.79385322 -1.7940083 0.77470088 8.107407e-39
0.80433083 -1.7940083 0.77470094 8.01521e-39
0.81480855 -1.7940083 0.77470094 8.01521e-39
0.82528621 -1.7940079 0.77470094 8.1074042e-39
0.83576387 -1.7940079 0.77470106 8.1070441e-39
0.84624153 -1.7940079 0.77470094 7.9226543e-39
0.85597533 -1.7948078 0.77470106 7.923013e-39
0.86444807 -1.7932081 0.774701 8.01521e-39
0.87418199 -1.7940081 0.77470106 8.0148499e-39
0.88465959 -1.7940079 0.77470112 8.0148471e-39
0.89513737 -1.7940078 0.77470112 8.1066812e-39
0.90561503 -1.7940078 0.77470112 8.1066812e-39
0.9126001 -1.7940078 0.77470112 8.1988782e-39
-0.55636549 -1.782073 0.77469879 8.1992425e-39
-0.54594451 -1.782073 0.77469879 8.2914396e-39
-0.53552347 -1.7820729 0.77469891 8.1992425e-39
-0.52510244 -1.7820729 0.77469891 8.1070441e-39
-0.51468152 -1.7820729 0.77469891 8.1996027e-39
-0.50426048 -1.7820727 0.77469891 8.2917983e-39
-0.49383947 -1.7820727 0.77469891 8.1992397e-39
-0.48515528 -1.7820728 0.77469891 8.1070427e-39
-0.4764711 -1.7820727 0.77469891 8.1995999e-39
-0.46605012 -1.7820727 0.77469891 8.2917997e-39
-0.45562911 -1.7820727 0.77469891 8.1996013e-39
-0.4452081 -1.7820727 0.77469891 8.1992383e-39
-0.43478712 -1.7820727 0.77469891 8.1996027e-39
-0.42436612 -1.7820727 0.77469891 8.107407e-39
-0.41394511 -1.7820727 0.77469897 8.1070455e-39
-0.40352407 -1.7820727 0.77469897 8.1988782e-39
-0.39483994 -1.7820727 0.77469897 8.2910724e-39
-0.38615575 -1.7820725 0.77469897 8.1988782e-39
-0.37573478 -1.7820727 0.77469897 7.9226514e-39
-0.36531377 -1.7820725 0.77469903 7.9226528e-39
-0.35489273 -1.7820725 0.77469903 7.9230144e-39
-0.34447172 -1.7820725 0.77469903 8.0148471e-39
-0.33405074 -1.7820725 0.77469903 8.0148471e-39
-0.32362971 -1.7820724 0.77469903 8.1066812e-39
-0.31494558 -1.7820724 0.77469909 8.1066812e-39
-0.30799824 -1.7820724 0.77469909 8.1070427e-39
-0.12215708 -1.7820719 0.77469927 7.9226528e-39
-0.11520976 -1.7820719 0.77469927 8.0148499e-39
-0.10478876 -1.7820719 0.77469927 8.1074056e-39
-0.094367765 -1.7820719 0.77469939 8.0152114e-39
-0.085683599 -1.7820719 0.77469933 7.9230144e-39
0.11578891 -1.7820712 0.77469969 7.9233773e-39
0.12447306 -1.7820711 0.77469969 7.9230172e-39
0.13489406 -1.7820711 0.77469975 7.9233773e-39
0.14531504 -1.7820711 0.77469975 7.9233759e-39
0.15573603 -1.7820711 0.77469987 8.015573e-39
0.16615701 -1.7820711 0.77469987 8.0159331e-39
0.17484117 -1.7820711 0.77469981 8.0155715e-39
0.18352532 -1.7820711 0.77469987 7.9237375e-39
0.19394629 -1.782071 0.77469987 7.8315446e-39
0.20089363 -1.782071 0.77469981 7.9237431e-39
0.24952488 -1.7820708 0.77469993 7.9244661e-39
0.2564722 -1.7820708 0.77469993 7.9244675e-39
0.26515633 -1.7820708 0.77469993 7.831909e-39
0.27384049 -1.7820706 0.77469999 7.7393504e-39
0.28426149 -1.7820706 0.77469999 7.7397105e-39
0.29468247 -1.7820706 0.77469999 7.8319076e-39
0.30510345 -1.7820706 0.77469999 7.7400735e-39
0.31552443 -1.7820705 0.77469999 7.7400749e-39
0.32594541 -1.7820705 0.77469999 7.831909e-39
0.33636639 -1.7820705 0.77470011 7.9241032e-39
0.34505051 -1.7820704 0.77470011 7.9241046e-39
0.35373464 -1.7820705 0.77470011 7.9241046e-39
0.36415565 -1.7820705 0.77470016 7.9241046e-39
0.37457666 -1.7820703 0.77470016 7.831909e-39
0.38499761 -1.7820703 0.77470016 7.6475163e-39
0.39194489 -1.7820703 0.77470016 7.7393504e-39
0.52394396 -1.7820698 0.7747004 8.1074056e-39
0.53436488 -1.7820698 0.7747004 8.107407e-39
0.54478586 -1.7820697 0.7747004 8.1074056e-39
0.55520684 -1.7820697 0.7747004 8.1070441e-39
0.56562775 -1.7820697 0.77470046 8.1070441e-39
0.57604879 -1.7820697 0.77470046 8.1066826e-39
0.58646971 -1.7820696 0.77470046 8.1066826e-39
0.59515387 -1.7820696 0.77470052 8.1992383e-39
0.60383803 -1.7820696 0.77470046 8.1988782e-39
0.61425894 -1.7820696 0.77470046 8.0144869e-39
0.62467998 -1.7820696 0.77470046 8.1066812e-39
0.6351009 -1.7820696 0.77470046 8.2910738e-39
0.64552188 -1.7820696 0.77470058 8.1992383e-39
0.65594286 -1.7820696 0.77470058 8.1992383e-39
0.66636378 -1.7820693 0.77470064 8.1996027e-39
0.67504793 -1.7820693 0.77470064 8.2917983e-39
0.68373209 -1.7820693 0.77470064 8.1992425e-39
0.69415307 -1.7820692 0.77470064 8.1070441e-39
0.70457405 -1.7820692 0.7747007 8.1996027e-39
0.71499497 -1.7820692 0.7747007 8.2917983e-39
0.72541589 -1.7820688 0.77470082 8.1992397e-39
0.73583692 -1.7820688 0.77470082 8.1070427e-39
0.74625784 -1.7820688 0.77470082 8.1996027e-39
0.754942 -1.782069 0.77470076 8.2917997e-39
0.7636261 -1.7820688 0.77470082 8.1996013e-39
0.77404714 -1.7820688 0.77470082 8.1992383e-39
0.784468 -1.7820687 0.77470088 8.1996027e-39
0.79488897 -1.7820687 0.77470088 8.107407e-39
0.80530995 -1.7820687 0.77470088 8.1070455e-39
0.81573087 -1.7820687 0.77470088 8.1988782e-39
0.82615185 -1.7820686 0.77470094 8.2910724e-39
0.83483601 -1.7820686 0.77470094 8.1070427e-39
0.8435201 -1.7820686 0.77470094 7.9226514e-39
0.85394114 -1.7820686 0.77470094 7.9226528e-39
0.86436206 -1.7820686 0.77470094 7.9230144e-39
0.87478298 -1.7820686 0.77470106 8.0148471e-39
0.88520402 -1.7820686 0.77470106 8.0148471e-39
0.89562494 -1.7820686 0.77470106 8.1066812e-39
0.90604585 -1.7820684 0.77470112 8.1066826e-39
0.91299313 -1.7820684 0.77470112 8.1988796e-39
-0.91425091 -1.7741907 0.77469838 7.6475163e-39
-0.55428725 -1.7741896 0.77469879 8.2914354e-39
-0.54390365 -1.7741896 0.77469879 8.2914368e-39
-0.53352004 -1.7741896 0.77469879 8.1992397e-39
-0.52486718 -1.7741896 0.77469879 8.1992383e-39
-0.51621419 -1.7741896 0.77469879 8.1995999e-39
-0.50583071 -1.7741896 0.77469879 8.2917969e-39
-0.49544707 -1.7741896 0.77469879 8.1992411e-39
-0.48506346 -1.7741895 0.77469891 8.1070441e-39
-0.47467995 -1.7741895 0.77469891 8.1996027e-39
-0.46429643 -1.7741895 0.77469891 8.2917983e-39
-0.45391282 -1.7741895 0.77469891 8.1992397e-39
-0.44352925 -1.7741894 0.77469891 8.1992397e-39
-0.43487629 -1.7741894 0.77469891 8.1996013e-39
-0.42622337 -1.7741894 0.77469891 8.107407e-39
-0.41583979 -1.7741894 0.77469891 8.1992397e-39
-0.40545622 -1.7741894 0.77469891 8.2910724e-39
-0.39507261 -1.7741894 0.77469897 8.3829065e-39
-0.38468909 -1.7741894 0.77469897 8.1985167e-39
-0.37430558 -1.7741894 0.77469897 7.9226514e-39
-0.363922 -1.7741891 0.77469897 7.9226528e-39
-0.35353842 -1.7741891 0.77469903 7.9226528e-39
-0.34488547 -1.7741891 0.77469903 8.0148471e-39
-0.33623251 -1.7741891 0.77469903 8.0148457e-39
-0.32584894 -1.7741891 0.77469903 8.0148457e-39
-0.31546539 -1.7741891 0.77469903 7.923013e-39
-0.30854303 -1.774189 0.77469909 8.0152114e-39
-0.11471671 -1.7741886 0.77469939 7.9233773e-39
-0.10433316 -1.7741886 0.77469939 8.0155744e-39
-0.093949616 -1.7741885 0.77469939 8.0152128e-39
-0.085296661 -1.7741885 0.77469933 7.9230144e-39
0.11545189 -1.7741879 0.77469969 7.9233787e-39
0.12410484 -1.7741879 0.77469969 8.0152128e-39
0.13448837 -1.7741877 0.77469969 8.015573e-39
0.14487192 -1.7741877 0.77469969 7.9233759e-39
0.15525547 -1.7741877 0.77469975 8.0152128e-39
0.16563901 -1.7741877 0.77469975 8.0152114e-39
0.17602254 -1.7741877 0.77469987 8.0152114e-39
0.18640608 -1.7741877 0.77469987 7.9230172e-39
0.19505903 -1.7741877 0.77469981 7.8311817e-39
0.2002508 -1.7741877 0.77469981 7.8315446e-39
0.24870731 -1.7741874 0.77469993 7.8319076e-39
0.25562966 -1.7741874 0.77469993 7.8322705e-39
0.26601321 -1.7741874 0.77469993 7.8319062e-39
0.27639675 -1.7741874 0.77469999 7.7393504e-39
0.28504971 -1.7741873 0.77469999 7.7393518e-39
0.29370263 -1.7741874 0.77469999 7.6475163e-39
0.30408615 -1.7741874 0.77469999 7.5556808e-39
0.3144697 -1.7741874 0.77469999 7.5553221e-39
0.32485321 -1.7741872 0.77469999 7.7397119e-39
0.3352367 -1.7741872 0.77469999 7.831909e-39
0.34562027 -1.7741872 0.77469999 7.8322705e-39
0.35600385 -1.7741871 0.77469999 7.9241046e-39
0.36638737 -1.7741871 0.77469999 7.8322705e-39
0.37504032 -1.7741871 0.77470005 7.7400721e-39
0.38369322 -1.7741871 0.77470011 7.6475163e-39
0.39061558 -1.774187 0.77470011 7.5553207e-39
0.51867908 -1.7741865 0.77470034 8.107407e-39
0.52560145 -1.7741865 0.77470034 8.1077658e-39
0.53598493 -1.7741865 0.7747004 8.01521e-39
0.54636842 -1.7741865 0.7747004 7.9230116e-39
0.55502141 -1.7741865 0.7747004 8.0148471e-39
0.56367439 -1.7741865 0.7747004 8.0148471e-39
0.57405788 -1.7741865 0.77470046 8.0144869e-39
0.58444142 -1.7741865 0.77470046 8.0144869e-39
0.59482497 -1.7741865 0.77470046 8.1070427e-39
0.60520846 -1.7741863 0.77470046 8.1066826e-39
0.615592 -1.7741863 0.77470046 8.0144855e-39
0.62597555 -1.7741861 0.77470058 8.1066812e-39
0.63635898 -1.7741861 0.77470058 8.2910724e-39
0.6450119 -1.7741861 0.77470058 8.2914326e-39
0.65366483 -1.7741861 0.77470064 8.2910752e-39
0.66404837 -1.774186 0.77470064 8.2914354e-39
0.67443186 -1.774186 0.77470064 8.2914368e-39
0.68481541 -1.7741858 0.77470064 8.1992411e-39
0.69519895 -1.7741858 0.77470064 8.1992397e-39
0.70558244 -1.7741858 0.77470064 8.2914368e-39
0.71596599 -1.7741858 0.77470064 8.2914382e-39
0.72634953 -1.7741858 0.7747007 8.1074056e-39
0.7350024 -1.7741858 0.7747007 8.1070441e-39
0.74365538 -1.7741857 0.77470082 8.1996013e-39
0.75403887 -1.7741857 0.77470082 8.2917969e-39
0.76442242 -1.7741857 0.77470082 8.1992397e-39
0.77480596 -1.7741857 0.77470082 8.1992397e-39
0.78518939 -1.7741857 0.77470082 8.1996013e-39
0.79557294 -1.7741857 0.77470082 8.1074056e-39
0.80595642 -1.7741855 0.77470088 8.1992397e-39
0.81633997 -1.7741855 0.77470088 8.291071e-39
0.8249929 -1.7741854 0.77470088 8.3829065e-39
0.83364582 -1.7741855 0.77470088 8.1988754e-39
0.84402937 -1.7741855 0.77470094 7.9226514e-39
0.85441279 -1.7741853 0.77470094 7.9226528e-39
0.86479634 -1.7741852 0.77470094 7.9226528e-39
0.87517983 -1.7741852 0.77470094 8.0148471e-39
0.88556337 -1.7741852 0.77470094 8.1066812e-39
0.8959468 -1.7741852 0.77470106 8.0148471e-39
0.90633035 -1.7741851 0.77470106 7.9230144e-39
0.91325265 -1.7741849 0.77470112 8.0155715e-39
-0.91434753 -1.7663637 0.77469832 7.4631264e-39
-0.55394828 -1.7663628 0.77469879 8.1992383e-39
-0.54532629 -1.7663628 0.77469873 8.1988782e-39
-0.53497988 -1.7663628 0.77469873 8.1985167e-39
-0.52463347 -1.7663628 0.77469879 8.2910738e-39
-0.51428717 -1.7663628 0.77469879 8.1996013e-39
-0.50394076 -1.7663627 0.77469879 8.1992425e-39
-0.49359432 -1.7663627 0.77469891 8.1070455e-39
-0.48497239 -1.7663627 0.77469885 8.1074056e-39
-0.47635043 -1.7663627 0.77469891 8.1996027e-39
-0.46600404 -1.7663627 0.77469891 8.2917983e-39
-0.45565763 -1.7663627 0.77469891 8.1996013e-39
-0.44531122 -1.7663627 0.77469891 8.1995999e-39
-0.4349649 -1.7663627 0.77469891 8.1996013e-39
-0.42461848 -1.7663627 0.77469891 8.1074042e-39
-0.41427216 -1.7663627 0.77469891 8.1992397e-39
-0.40392575 -1.7663625 0.77469891 8.2914326e-39
-0.39357936 -1.7663625 0.77469891 8.2910724e-39
-0.3849574 -1.7663625 0.77469891 8.1070413e-39
-0.37633538 -1.7663625 0.77469897 7.9226528e-39
-0.365989 -1.7663625 0.77469897 7.9226543e-39
-0.35564265 -1.7663625 0.77469897 8.0148499e-39
-0.34529626 -1.7663625 0.77469897 8.0148485e-39
-0.33494985 -1.7663623 0.77469903 8.0148443e-39
-0.3246035 -1.7663623 0.77469903 7.9230116e-39
-0.31598154 -1.7663623 0.77469903 7.923013e-39
-0.11250281 -1.7663618 0.77469921 7.9233787e-39
-0.10388083 -1.7663618 0.77469921 8.0155758e-39
-0.09353447 -1.7663618 0.77469927 8.015573e-39
-0.084912486 -1.7663618 0.77469927 8.0155715e-39
0.1151173 -1.7663611 0.77469963 7.9241018e-39
0.12373926 -1.7663609 0.77469969 8.0159359e-39
0.13408563 -1.7663609 0.77469969 8.0152142e-39
0.14443199 -1.7663609 0.77469969 8.0152128e-39
0.15477835 -1.7663609 0.77469969 8.015573e-39
0.16512471 -1.7663609 0.77469975 8.0155744e-39
0.17547107 -1.7663609 0.77469975 8.0152128e-39
0.18581742 -1.7663609 0.77469987 7.9230158e-39
0.19616379 -1.7663609 0.77469987 7.9233787e-39
0.2478956 -1.7663608 0.77469987 7.831546e-39
0.25479317 -1.7663606 0.77469993 7.8319062e-39
0.26513952 -1.7663606 0.77469993 7.7393518e-39
0.27548587 -1.7663606 0.77469993 7.6475163e-39
0.28583223 -1.7663606 0.77469993 7.463125e-39
0.29617858 -1.7663606 0.77469993 7.3709294e-39
0.30652493 -1.7663604 0.77469993 7.4631264e-39
0.31514689 -1.7663604 0.77469999 7.5553235e-39
0.32376885 -1.7663603 0.77469999 7.6475177e-39
0.33411518 -1.7663603 0.77469999 7.7400735e-39
0.34446156 -1.7663603 0.77469999 7.8322719e-39
0.35480794 -1.7663603 0.77469999 7.8326306e-39
0.36515427 -1.7663602 0.77470011 7.8322705e-39
0.37550059 -1.7663602 0.77470011 7.7400749e-39
0.38584697 -1.7663602 0.77470011 7.6475177e-39
0.51690072 -1.7663597 0.77470034 8.1074056e-39
0.52379829 -1.7663597 0.77470034 8.1996013e-39
0.5341447 -1.7663597 0.77470034 8.0148499e-39
0.54449099 -1.7663597 0.7747004 7.8304586e-39
0.55483735 -1.7663597 0.7747004 7.9226528e-39
0.5651837 -1.7663597 0.7747004 8.1070413e-39
0.57553005 -1.7663597 0.7747004 8.0148471e-39
0.58587641 -1.7663594 0.77470046 8.106684e-39
0.59622276 -1.7663593 0.77470046 8.1988768e-39
0.60484469 -1.7663593 0.77470052 8.1066812e-39
0.61346656 -1.7663593 0.77470046 8.0144855e-39
0.62381297 -1.7663593 0.77470046 8.0148457e-39
0.63415933 -1.7663593 0.77470046 8.1992369e-39
0.64450568 -1.7663592 0.77470046 8.291071e-39
0.65485203 -1.7663592 0.77470046 8.1992369e-39
0.66519839 -1.7663592 0.77470046 8.1992383e-39
0.67554468 -1.766359 0.77470058 8.1988768e-39
0.68589109 -1.766359 0.77470058 8.1988768e-39
0.69623733 -1.766359 0.77470064 8.2910752e-39
0.70485926 -1.7663591 0.77470064 8.1996013e-39
0.71348125 -1.766359 0.77470064 8.1996013e-39
0.7238276 -1.766359 0.77470064 8.1070455e-39
0.73417395 -1.7663589 0.7747007 8.1074056e-39
0.74452019 -1.7663589 0.7747007 8.1996041e-39
0.7548666 -1.7663587 0.7747007 8.2917983e-39
0.76521301 -1.7663587 0.77470082 8.1995999e-39
0.77555925 -1.7663587 0.77470082 8.1995999e-39
0.78590566 -1.7663587 0.77470082 8.1992425e-39
0.79625195 -1.7663587 0.77470082 8.1074042e-39
0.80487394 -1.7663586 0.77470082 8.1995999e-39
0.81349587 -1.7663585 0.77470088 8.2914326e-39
0.82384223 -1.7663585 0.77470088 8.2914326e-39
0.83418846 -1.7663585 0.77470088 8.1988768e-39
0.84453487 -1.7663585 0.77470088 7.9226528e-39
0.85488111 -1.7663584 0.77470094 7.923013e-39
0.86522746 -1.7663584 0.77470094 8.0148513e-39
0.87557381 -1.7663584 0.77470094 8.0148471e-39
0.88592011 -1.7663583 0.77470094 8.0148443e-39
0.89626652 -1.7663583 0.77470094 7.9230116e-39
0.90488851 -1.7663583 0.774701 8.0148499e-39
0.91178602 -1.7663583 0.774701 8.01521e-39
-0.91106063 -1.7547349 0.77469832 7.5556808e-39
-0.90597796 -1.750877 0.77469832 7.6475163e-39
-0.5517841 -1.7560199 0.77469873 8.1988782e-39
-0.54483831 -1.7539625 0.77469873 8.1988768e-39
-0.53543663 -1.754734 0.77469873 8.1992369e-39
-0.52514547 -1.7547342 0.77469873 8.2914354e-39
-0.51485437 -1.754734 0.77469873 8.1074056e-39
-0.50456315 -1.7547339 0.77469873 8.0148499e-39
-0.49514085 -1.7555056 0.77469879 8.01521e-39
-0.48569307 -1.754734 0.77469873 8.1992425e-39
-0.47540188 -1.7547337 0.77469879 8.1995999e-39
-0.46511078 -1.7547337 0.77469879 8.1992397e-39
-0.45481965 -1.7547337 0.77469879 8.291434e-39
-0.44452849 -1.7547337 0.77469879 8.1996013e-39
-0.43510523 -1.7539623 0.77469885 8.01521e-39
-0.42566445 -1.7547337 0.77469879 7.9230144e-39
-0.41537333 -1.7547337 0.77469879 8.1995999e-39
-0.40508214 -1.7547337 0.77469879 8.291434e-39
-0.39479104 -1.7547337 0.77469891 8.0148485e-39
-0.38449988 -1.7547337 0.77469891 7.8304586e-39
-0.37420872 -1.7547336 0.77469891 7.8308174e-39
-0.36473989 -1.7555052 0.77469891 7.9226543e-39
-0.3553386 -1.7547337 0.77469891 8.01521e-39
-0.34504744 -1.7547336 0.77469891 8.01521e-39
-0.33475628 -1.7547336 0.77469897 7.9230158e-39
-0.32537213 -1.7539619 0.77469897 7.9230158e-39
-0.31760746 -1.7547336 0.77469897 7.9233759e-39
-0.1103047 -1.7585909 0.77469921 8.0155744e-39
-0.10590603 -1.7539613 0.77469921 8.0155744e-39
-0.096348017 -1.7547331 0.77469921 8.0155744e-39
-0.086056888 -1.7547331 0.77469921 8.0152128e-39
0.11633533 -1.7547323 0.77469963 8.0155758e-39
0.12590191 -1.7539606 0.77469963 8.0155744e-39
0.13421176 -1.7555039 0.77469969 8.0152128e-39
0.14377834 -1.754732 0.77469969 7.9233745e-39
0.15406945 -1.754732 0.77469969 8.0155715e-39
0.16436058 -1.7547321 0.77469969 8.0159345e-39
0.17465173 -1.7547321 0.77469969 8.015573e-39
0.18494284 -1.754732 0.77469969 7.9237375e-39
0.19523394 -1.754732 0.77469969 7.9233773e-39
0.20177402 -1.750874 0.77469975 8.0152142e-39
0.2484017 -1.7547317 0.77469981 7.8319076e-39
0.25526246 -1.7547317 0.77469975 7.8319076e-39
0.26461238 -1.7555033 0.77469987 7.8319062e-39
0.27413258 -1.7547315 0.77469987 7.831909e-39
0.28442365 -1.7547317 0.77469987 7.7397133e-39
0.29471478 -1.7547315 0.77469993 7.5553221e-39
0.30500588 -1.7547317 0.77469993 7.5553221e-39
0.31529704 -1.7547315 0.77469999 7.5556808e-39
0.32558811 -1.7547315 0.77469993 7.6478778e-39
0.33587924 -1.7547315 0.77469999 7.8319104e-39
0.34536761 -1.7539599 0.77469999 7.8322719e-39
0.35474324 -1.7547313 0.77469999 7.9244661e-39
0.36503434 -1.7547313 0.77469999 7.8326306e-39
0.37532547 -1.7547312 0.77469999 7.8322705e-39
0.38471818 -1.7555029 0.77470005 7.8322705e-39
0.50995773 -1.750873 0.77470028 8.0148499e-39
0.51597369 -1.7547308 0.77470028 8.0152086e-39
0.52454972 -1.7547307 0.77470022 8.1992397e-39
0.53484076 -1.7547307 0.77470022 8.1070469e-39
0.54513186 -1.7547307 0.77470034 8.01521e-39
0.55542296 -1.7547307 0.77470034 7.9226543e-39
0.56483316 -1.7539591 0.7747004 7.9226528e-39
0.57428694 -1.7547307 0.7747004 7.9226528e-39
0.58457804 -1.7547303 0.7747004 8.1070427e-39
0.5948692 -1.7547306 0.77470046 8.1988782e-39
0.6051603 -1.7547306 0.77470046 8.1988782e-39
0.61545134 -1.7547303 0.77470046 8.1988782e-39
0.6257425 -1.7547306 0.77470058 8.1988782e-39
0.6352244 -1.755502 0.77470052 8.1988782e-39
0.64461255 -1.7547302 0.77470058 8.1992383e-39
0.65490365 -1.7547303 0.77470058 8.1992383e-39
0.66519481 -1.7547302 0.77470058 8.1988782e-39
0.67456585 -1.7539587 0.77470064 8.1988768e-39
0.68405873 -1.7547302 0.77470064 8.1992383e-39
0.69434983 -1.7547301 0.77470064 8.2914354e-39
0.70464092 -1.7547301 0.77470064 8.1074056e-39
0.71493202 -1.7547302 0.77470064 8.0148485e-39
0.72522312 -1.7547299 0.77470064 8.1070455e-39
0.73551422 -1.7547299 0.77470064 8.1992425e-39
0.74580532 -1.7547301 0.7747007 8.1992411e-39
0.75609642 -1.7547299 0.7747007 8.1992397e-39
0.76562476 -1.7555015 0.77470076 8.2914354e-39
0.77496654 -1.7547299 0.7747007 8.1996013e-39
0.78429848 -1.7539583 0.77470076 8.01521e-39
0.79383045 -1.7547299 0.7747007 7.9230144e-39
0.80412149 -1.7547297 0.77470082 8.1995999e-39
0.81441265 -1.7547299 0.77470082 8.291434e-39
0.82470387 -1.7547299 0.77470082 8.0148485e-39
0.83499479 -1.7547296 0.77470088 7.8304586e-39
0.84528589 -1.7547297 0.77470088 7.8308174e-39
0.85557705 -1.7547296 0.77470088 7.9230144e-39
0.86586809 -1.7547297 0.77470088 8.01521e-39
0.87615919 -1.7547296 0.77470094 7.9233745e-39
0.88573027 -1.7555012 0.77470094 7.9230144e-39
0.89403105 -1.753958 0.77470094 7.9230172e-39
0.90360212 -1.7547296 0.77470094 8.0152128e-39
0.91217804 -1.7547294 0.774701 8.0152128e-39
-0.91122103 -1.743216 0.7746982 7.7397119e-39
-0.90439671 -1.743216 0.7746982 7.7397133e-39
-0.54612142 -1.7432151 0.77469867 8.1988796e-39
-0.53588504 -1.743215 0.77469867 8.1992397e-39
-0.52564859 -1.743215 0.77469867 8.1992411e-39
-0.51541215 -1.743215 0.77469867 8.1070455e-39
-0.50517577 -1.743215 0.77469867 8.0152086e-39
-0.49493933 -1.743215 0.77469873 8.1074056e-39
-0.48470286 -1.743215 0.77469873 8.1996027e-39
-0.47446644 -1.743215 0.77469873 8.1070441e-39
-0.46423006 -1.743215 0.77469873 8.1070413e-39
-0.45399356 -1.7432147 0.77469873 8.1992411e-39
-0.44375718 -1.7432147 0.77469879 8.1074056e-39
-0.4335207 -1.7432147 0.77469873 7.9230144e-39
-0.42499039 -1.7432148 0.77469873 8.01521e-39
-0.41646004 -1.7432147 0.77469879 8.1992411e-39
-0.40622362 -1.7432147 0.77469879 8.1996013e-39
-0.39598718 -1.7432147 0.77469879 8.0148485e-39
-0.38575077 -1.7432146 0.77469891 7.8304586e-39
-0.37551436 -1.7432146 0.77469891 7.8311789e-39
-0.36527792 -1.7432146 0.77469891 7.9230158e-39
-0.3550415 -1.7432146 0.77469891 8.01521e-39
-0.34480509 -1.7432146 0.77469891 8.0152114e-39
-0.33456862 -1.7432146 0.77469891 7.9230172e-39
